# .PCD v0.7 - Point Cloud Data file format
VERSION 0.7
FIELDS x y z rgb normal_x normal_y normal_z curvature
SIZE 4 4 4 4 4 4 4 4
TYPE F F F F F F F F
COUNT 1 1 1 1 1 1 1 1
WIDTH 1146
HEIGHT 1
VIEWPOINT 0 0 0 1 0 0 0
POINTS 1146
DATA ascii
0.51939344 0.17609428 1.2255356 0 0 0 0 0
0.51932168 0.17610578 1.2254831 0 0 0 0 0
0.51919746 0.17612568 1.2253922 0 0 0 0 0
0.5191769 0.17612898 1.2253771 0 0 0 0 0
0.51936489 0.17609885 1.2255148 0 0 0 0 0
0.51982987 0.17602435 1.2258551 0 0 0 0 0
0.5199967 0.1759976 1.2259772 0 0 0 0 0
0.52025658 0.17595597 1.2261674 0 0 0 0 0
0.52030766 0.17594779 1.2262049 0 0 0 0 0
0.52032214 0.17594546 1.2262155 0 0 0 0 0
0.52025908 0.17595556 1.2261692 0 0 0 0 0
0.52005166 0.17598879 1.2260175 0 0 0 0 0
0.52015996 0.17597145 1.2260967 0 0 0 0 0
0.52004641 0.17598964 1.2260137 0 0 0 0 0
0.52041745 0.17593019 1.2262852 0 0 0 0 0
0.51968163 0.1760481 1.2257466 0 0 0 0 0
0.5199663 0.17600249 1.225955 0 0 0 0 0
0.51972592 0.17604101 1.2257789 0 0 0 0 0
0.5200786 0.17598449 1.2260371 0 0 0 0 0
0.52026021 0.17595538 1.2261701 0 0 0 0 0
0.52099001 0.17583844 1.2267044 0 0 0 0 0
0.52130693 0.17578766 1.2269363 0 0 0 0 0
0.5213235 0.17578499 1.2269485 0 0 0 0 0
0.52162814 0.17573619 1.2271714 0 0 0 0 0
0.52167392 0.17572884 1.2272049 0 0 0 0 0
0.52160168 0.17574042 1.2271521 0 0 0 0 0
0.52184099 0.17570208 1.2273272 0 0 0 0 0
0.5222922 0.17562976 1.2276576 0 0 0 0 0
0.52227247 0.17563294 1.227643 0 0 0 0 0
0.52233458 0.17562298 1.2276886 0 0 0 0 0
0.52252162 0.175593 1.2278254 0 0 0 0 0
0.52295291 0.17552389 1.2281412 0 0 0 0 0
0.52340168 0.17545198 1.2284696 0 0 0 0 0
0.5236603 0.17541054 1.2286589 0 0 0 0 0
0.52363825 0.17541407 1.2286428 0 0 0 0 0
0.52399105 0.17535754 1.228901 0 0 0 0 0
0.52444327 0.17528509 1.2292321 0 0 0 0 0
0.52453977 0.1752696 1.2293028 0 0 0 0 0
0.52520156 0.17516357 1.2297871 0 0 0 0 0
0.52559978 0.17509976 1.2300786 0 0 0 0 0
0.52601951 0.1750325 1.2303859 0 0 0 0 0
0.5265466 0.17494804 1.2307717 0 0 0 0 0
0.5270164 0.17487274 1.2311156 0 0 0 0 0
0.52779245 0.17474839 1.2316837 0 0 0 0 0
0.52862233 0.17461541 1.2322911 0 0 0 0 0
0.5292716 0.17451136 1.2327664 0 0 0 0 0
0.53014302 0.17437173 1.2334043 0 0 0 0 0
0.53088021 0.1742536 1.2339439 0 0 0 0 0
0.53232563 0.17402199 1.2350019 0 0 0 0 0
0.52045906 0.17592353 1.2263156 0 0 0 0 0
0.51990563 0.1760122 1.2259105 0 0 0 0 0
0.51964748 0.17605357 1.2257216 0 0 0 0 0
0.51972759 0.17604072 1.2257802 0 0 0 0 0
0.51999003 0.17599867 1.2259723 0 0 0 0 0
0.51972085 0.17604181 1.2257752 0 0 0 0 0
0.5192883 0.17611113 1.2254586 0 0 0 0 0
0.51943767 0.17608719 1.2255681 0 0 0 0 0
0.51919156 0.17612663 1.2253878 0 0 0 0 0
0.51926285 0.17611521 1.22544 0 0 0 0 0
0.51946777 0.17608237 1.22559 0 0 0 0 0
0.51882774 0.17618494 1.2251215 0 0 0 0 0
0.51921695 0.17612256 1.2254064 0 0 0 0 0
0.51929641 0.17610982 1.2254646 0 0 0 0 0
0.51980919 0.17602766 1.22584 0 0 0 0 0
0.52008784 0.17598301 1.2260439 0 0 0 0 0
0.520347 0.17594147 1.2262336 0 0 0 0 0
0.51973331 0.17603981 1.2257844 0 0 0 0 0
0.52019441 0.17596593 1.2261219 0 0 0 0 0
0.5199433 0.17600617 1.2259381 0 0 0 0 0
0.52013612 0.17597528 1.2260792 0 0 0 0 0
0.51949304 0.17607832 1.2256086 0 0 0 0 0
0.51969022 0.17604673 1.2257528 0 0 0 0 0
0.51958907 0.17606293 1.2256788 0 0 0 0 0
0.51957905 0.17606454 1.2256715 0 0 0 0 0
0.51985341 0.17602056 1.2258724 0 0 0 0 0
0.52020925 0.17596355 1.2261329 0 0 0 0 0
0.52058667 0.17590307 1.2264091 0 0 0 0 0
0.52081031 0.17586724 1.2265728 0 0 0 0 0
0.52080315 0.17586839 1.2265675 0 0 0 0 0
0.52095169 0.17584458 1.2266762 0 0 0 0 0
0.52097559 0.17584075 1.2266937 0 0 0 0 0
0.5211972 0.17580524 1.226856 0 0 0 0 0
0.52142876 0.17576814 1.2270255 0 0 0 0 0
0.52194113 0.17568603 1.2274005 0 0 0 0 0
0.52196401 0.17568237 1.2274173 0 0 0 0 0
0.52191263 0.17569059 1.2273797 0 0 0 0 0
0.52183598 0.17570287 1.2273235 0 0 0 0 0
0.52239865 0.17561272 1.2277354 0 0 0 0 0
0.52270412 0.17556377 1.227959 0 0 0 0 0
0.52302676 0.17551206 1.2281952 0 0 0 0 0
0.52322978 0.17547953 1.2283438 0 0 0 0 0
0.52337861 0.17545569 1.2284528 0 0 0 0 0
0.52373588 0.17539844 1.2287142 0 0 0 0 0
0.52385235 0.17537977 1.2287996 0 0 0 0 0
0.52465981 0.17525038 1.2293906 0 0 0 0 0
0.52509159 0.1751812 1.2297066 0 0 0 0 0
0.52544224 0.175125 1.2299633 0 0 0 0 0
0.52578843 0.17506953 1.2302167 0 0 0 0 0
0.52640241 0.17497113 1.2306662 0 0 0 0 0
0.52726465 0.17483297 1.2312973 0 0 0 0 0
0.5279308 0.17472622 1.2317849 0 0 0 0 0
0.52865261 0.17461056 1.2323133 0 0 0 0 0
0.52951699 0.17447205 1.232946 0 0 0 0 0
0.53054154 0.17430787 1.233696 0 0 0 0 0
0.53196138 0.17408034 1.2347353 0 0 0 0 0
0.51981097 0.17602737 1.2258413 0 0 0 0 0
0.51923573 0.17611955 1.2254202 0 0 0 0 0
0.51920331 0.17612475 1.2253965 0 0 0 0 0
0.51975119 0.17603695 1.2257975 0 0 0 0 0
0.51910371 0.17614071 1.2253236 0 0 0 0 0
0.51899219 0.17615858 1.2252419 0 0 0 0 0
0.51918119 0.1761283 1.2253803 0 0 0 0 0
0.51898283 0.17616008 1.2252351 0 0 0 0 0
0.51913297 0.17613602 1.225345 0 0 0 0 0
0.51908338 0.17614396 1.2253087 0 0 0 0 0
0.51904219 0.17615056 1.2252785 0 0 0 0 0
0.51892591 0.1761692 1.2251934 0 0 0 0 0
0.51871067 0.17620368 1.2250359 0 0 0 0 0
0.51882112 0.17618598 1.2251167 0 0 0 0 0
0.51924783 0.17611761 1.2254291 0 0 0 0 0
0.519728 0.17604066 1.2257805 0 0 0 0 0
0.51972455 0.17604122 1.225778 0 0 0 0 0
0.51996475 0.17600273 1.2259538 0 0 0 0 0
0.51968533 0.1760475 1.2257493 0 0 0 0 0
0.51954293 0.17607033 1.2256451 0 0 0 0 0
0.51967573 0.17604905 1.2257422 0 0 0 0 0
0.51967305 0.17604947 1.2257403 0 0 0 0 0
0.51970249 0.17604475 1.2257619 0 0 0 0 0
0.51926303 0.17611519 1.2254401 0 0 0 0 0
0.51942873 0.17608863 1.2255615 0 0 0 0 0
0.51980925 0.17602764 1.22584 0 0 0 0 0
0.51970577 0.17604423 1.2257643 0 0 0 0 0
0.51993394 0.17600766 1.2259313 0 0 0 0 0
0.52003968 0.17599073 1.2260087 0 0 0 0 0
0.52027863 0.17595243 1.2261835 0 0 0 0 0
0.5205366 0.1759111 1.2263724 0 0 0 0 0
0.52060002 0.17590094 1.2264189 0 0 0 0 0
0.52074665 0.17587744 1.2265261 0 0 0 0 0
0.52100354 0.17583627 1.2267143 0 0 0 0 0
0.52158624 0.17574289 1.2271408 0 0 0 0 0
0.5215382 0.1757506 1.2271056 0 0 0 0 0
0.52157634 0.17574449 1.2271335 0 0 0 0 0
0.5216769 0.17572837 1.2272071 0 0 0 0 0
0.5219425 0.17568581 1.2274015 0 0 0 0 0
0.52231741 0.17562574 1.2276759 0 0 0 0 0
0.52236289 0.17561844 1.2277093 0 0 0 0 0
0.52262855 0.17557587 1.2279037 0 0 0 0 0
0.52292418 0.1755285 1.2281201 0 0 0 0 0
0.52301264 0.17551433 1.2281848 0 0 0 0 0
0.52343476 0.17544667 1.2284939 0 0 0 0 0
0.5239737 0.17536032 1.2288884 0 0 0 0 0
0.52452451 0.17527206 1.2292916 0 0 0 0 0
0.52482414 0.17522404 1.2295109 0 0 0 0 0
0.52502447 0.17519194 1.2296575 0 0 0 0 0
0.5257318 0.1750786 1.2301753 0 0 0 0 0
0.52659106 0.17494091 1.2308042 0 0 0 0 0
0.52732468 0.17482336 1.2313412 0 0 0 0 0
0.52807295 0.17470345 1.231889 0 0 0 0 0
0.52893132 0.1745659 1.2325174 0 0 0 0 0
0.53014779 0.17437097 1.2334077 0 0 0 0 0
0.51988083 0.17601618 1.2258924 0 0 0 0 0
0.51896185 0.17616343 1.2252197 0 0 0 0 0
0.51869082 0.17620687 1.2250214 0 0 0 0 0
0.51887226 0.1761778 1.2251542 0 0 0 0 0
0.51895964 0.17616379 1.2252181 0 0 0 0 0
0.51925904 0.17611583 1.2254373 0 0 0 0 0
0.51838756 0.17625546 1.2247993 0 0 0 0 0
0.51847035 0.1762422 1.22486 0 0 0 0 0
0.51861566 0.17621891 1.2249663 0 0 0 0 0
0.51877362 0.17619359 1.2250819 0 0 0 0 0
0.51866317 0.1762113 1.2250011 0 0 0 0 0
0.5188545 0.17618063 1.2251412 0 0 0 0 0
0.51852292 0.17623377 1.2248985 0 0 0 0 0
0.51860285 0.17622097 1.224957 0 0 0 0 0
0.51865315 0.17621291 1.2249937 0 0 0 0 0
0.51908326 0.17614397 1.2253087 0 0 0 0 0
0.51954502 0.17606999 1.2256466 0 0 0 0 0
0.5197531 0.17603666 1.2257988 0 0 0 0 0
0.51943284 0.17608796 1.2255645 0 0 0 0 0
0.519036 0.17615156 1.225274 0 0 0 0 0
0.5193063 0.17610824 1.2254719 0 0 0 0 0
0.51881486 0.17618699 1.2251121 0 0 0 0 0
0.5191561 0.17613232 1.2253619 0 0 0 0 0
0.51932615 0.17610505 1.2254864 0 0 0 0 0
0.51879537 0.17619011 1.2250979 0 0 0 0 0
0.51904237 0.17615053 1.2252786 0 0 0 0 0
0.51924813 0.17611757 1.2254293 0 0 0 0 0
0.51955122 0.17606899 1.2256511 0 0 0 0 0
0.51956153 0.17606735 1.2256587 0 0 0 0 0
0.51969749 0.17604557 1.2257582 0 0 0 0 0
0.52013487 0.17597547 1.2260784 0 0 0 0 0
0.52017844 0.17596848 1.2261102 0 0 0 0 0
0.52024752 0.17595741 1.2261609 0 0 0 0 0
0.52043861 0.1759268 1.2263007 0 0 0 0 0
0.52061212 0.17589898 1.2264277 0 0 0 0 0
0.52101302 0.17583476 1.2267212 0 0 0 0 0
0.52113122 0.17581582 1.2268077 0 0 0 0 0
0.52101624 0.17583424 1.2267236 0 0 0 0 0
0.52108014 0.17582399 1.2267703 0 0 0 0 0
0.52148849 0.17575857 1.2270691 0 0 0 0 0
0.52175903 0.17571521 1.2272673 0 0 0 0 0
0.52169377 0.17572567 1.2272195 0 0 0 0 0
0.52200276 0.17567615 1.2274456 0 0 0 0 0
0.52230406 0.17562787 1.2276661 0 0 0 0 0
0.52253747 0.17559047 1.2278371 0 0 0 0 0
0.52293068 0.17552745 1.2281249 0 0 0 0 0
0.52339786 0.17545259 1.2284669 0 0 0 0 0
0.52392894 0.17536749 1.2288556 0 0 0 0 0
0.5242179 0.17532119 1.2290671 0 0 0 0 0
0.52450579 0.17527506 1.2292778 0 0 0 0 0
0.5252341 0.17515835 1.229811 0 0 0 0 0
0.5260542 0.17502692 1.2304113 0 0 0 0 0
0.5260542 0.17502692 1.2304113 0 0 0 0 0
0.5266766 0.1749272 1.2308669 0 0 0 0 0
0.5266766 0.1749272 1.2308669 0 0 0 0 0
0.52750647 0.17479421 1.2314743 0 0 0 0 0
0.52844691 0.17464352 1.2321627 0 0 0 0 0
0.52975082 0.17443457 1.2331172 0 0 0 0 0
0.51916689 0.17613059 1.2253698 0 0 0 0 0
0.51864386 0.1762144 1.2249869 0 0 0 0 0
0.51853895 0.17623121 1.2249101 0 0 0 0 0
0.51858187 0.17622432 1.2249416 0 0 0 0 0
0.51864505 0.1762142 1.2249879 0 0 0 0 0
0.51822269 0.17628188 1.2246786 0 0 0 0 0
0.51820123 0.17628533 1.2246629 0 0 0 0 0
0.51790339 0.17633304 1.224445 0 0 0 0 0
0.51818705 0.17628761 1.2246525 0 0 0 0 0
0.51849675 0.17623796 1.2248793 0 0 0 0 0
0.51849592 0.1762381 1.2248787 0 0 0 0 0
0.51790416 0.17633292 1.2244455 0 0 0 0 0
0.51811737 0.17629875 1.2246016 0 0 0 0 0
0.518453 0.17624497 1.2248472 0 0 0 0 0
0.5183512 0.17626129 1.2247727 0 0 0 0 0
0.51925784 0.176116 1.2254364 0 0 0 0 0
0.51937169 0.17609777 1.2255197 0 0 0 0 0
0.51927513 0.17611323 1.2254491 0 0 0 0 0
0.5189833 0.17615999 1.2252355 0 0 0 0 0
0.51903367 0.17615193 1.2252723 0 0 0 0 0
0.51874518 0.17619815 1.2250612 0 0 0 0 0
0.51869303 0.17620651 1.2250229 0 0 0 0 0
0.51900601 0.17615636 1.225252 0 0 0 0 0
0.51896405 0.17616309 1.2252213 0 0 0 0 0
0.51903415 0.17615186 1.2252727 0 0 0 0 0
0.51895458 0.1761646 1.2252144 0 0 0 0 0
0.51891547 0.17617087 1.2251858 0 0 0 0 0
0.51937252 0.17609763 1.2255204 0 0 0 0 0
0.51944244 0.17608643 1.2255715 0 0 0 0 0
0.51954198 0.17607048 1.2256444 0 0 0 0 0
0.519831 0.17602415 1.2258559 0 0 0 0 0
0.51968735 0.17604718 1.2257508 0 0 0 0 0
0.5198589 0.1760197 1.2258763 0 0 0 0 0
0.5202114 0.17596321 1.2261343 0 0 0 0 0
0.52022499 0.17596102 1.2261443 0 0 0 0 0
0.52059901 0.1759011 1.2264181 0 0 0 0 0
0.52069914 0.17588505 1.2264915 0 0 0 0 0
0.52065545 0.17589206 1.2264594 0 0 0 0 0
0.52075619 0.1758759 1.2265332 0 0 0 0 0
0.5207442 0.17587784 1.2265244 0 0 0 0 0
0.52121621 0.17580219 1.2268699 0 0 0 0 0
0.52137369 0.17577696 1.2269852 0 0 0 0 0
0.52157861 0.17574412 1.2271352 0 0 0 0 0
0.52174556 0.17571737 1.2272574 0 0 0 0 0
0.52192634 0.1756884 1.2273897 0 0 0 0 0
0.52236748 0.17561771 1.2277126 0 0 0 0 0
0.52266854 0.17556946 1.227933 0 0 0 0 0
0.52312952 0.17549559 1.2282704 0 0 0 0 0
0.52353275 0.17543098 1.2285656 0 0 0 0 0
0.52392274 0.17536849 1.2288511 0 0 0 0 0
0.52474004 0.17523752 1.2294493 0 0 0 0 0
0.52474004 0.17523752 1.2294493 0 0 0 0 0
0.5254935 0.17511679 1.2300009 0 0 0 0 0
0.5254935 0.17511679 1.2300009 0 0 0 0 0
0.52607161 0.17502415 1.230424 0 0 0 0 0
0.52607161 0.17502415 1.230424 0 0 0 0 0
0.52692521 0.17488736 1.2310488 0 0 0 0 0
0.52802479 0.17471117 1.2318537 0 0 0 0 0
0.52941084 0.17448907 1.2328683 0 0 0 0 0
0.51820475 0.17628476 1.2246655 0 0 0 0 0
0.51784474 0.17634244 1.224402 0 0 0 0 0
0.51820642 0.17628449 1.2246667 0 0 0 0 0
0.51804841 0.17630981 1.2245511 0 0 0 0 0
0.51762277 0.17637803 1.2242395 0 0 0 0 0
0.51818359 0.17628814 1.22465 0 0 0 0 0
0.51813066 0.17629664 1.2246113 0 0 0 0 0
0.51784867 0.17634182 1.2244048 0 0 0 0 0
0.51804698 0.17631005 1.22455 0 0 0 0 0
0.51798868 0.17631938 1.2245073 0 0 0 0 0
0.51786488 0.17633922 1.2244167 0 0 0 0 0
0.5176338 0.17637625 1.2242476 0 0 0 0 0
0.51780236 0.17634924 1.224371 0 0 0 0 0
0.51826781 0.17627466 1.2247117 0 0 0 0 0
0.51876235 0.1761954 1.2250737 0 0 0 0 0
0.51914757 0.17613368 1.2253556 0 0 0 0 0
0.51880032 0.17618932 1.2251015 0 0 0 0 0
0.51852322 0.17623372 1.2248986 0 0 0 0 0
0.5182482 0.1762778 1.2246974 0 0 0 0 0
0.51800442 0.17631686 1.2245189 0 0 0 0 0
0.51844633 0.17624605 1.2248423 0 0 0 0 0
0.51869673 0.17620592 1.2250257 0 0 0 0 0
0.51820952 0.17628399 1.224669 0 0 0 0 0
0.51890558 0.17617247 1.2251785 0 0 0 0 0
0.51879579 0.17619005 1.2250981 0 0 0 0 0
0.51878363 0.176192 1.2250893 0 0 0 0 0
0.51886702 0.17617863 1.2251503 0 0 0 0 0
0.51889873 0.17617355 1.2251735 0 0 0 0 0
0.51905155 0.17614907 1.2252854 0 0 0 0 0
0.5191431 0.17613439 1.2253524 0 0 0 0 0
0.51910973 0.17613974 1.225328 0 0 0 0 0
0.51972198 0.17604163 1.2257761 0 0 0 0 0
0.51976365 0.17603496 1.2258066 0 0 0 0 0
0.51983398 0.17602369 1.2258581 0 0 0 0 0
0.51991534 0.17601064 1.2259177 0 0 0 0 0
0.52024609 0.17595765 1.2261598 0 0 0 0 0
0.52039504 0.17593378 1.2262688 0 0 0 0 0
0.52020282 0.17596459 1.2261281 0 0 0 0 0
0.52010006 0.17598104 1.2260529 0 0 0 0 0
0.52047837 0.17592043 1.2263298 0 0 0 0 0
0.52062351 0.17589717 1.226436 0 0 0 0 0
0.52108008 0.175824 1.2267703 0 0 0 0 0
0.52125925 0.1757953 1.2269014 0 0 0 0 0
0.52155274 0.17574826 1.2271162 0 0 0 0 0
0.52176416 0.17571439 1.227271 0 0 0 0 0
0.52201915 0.17567353 1.2274576 0 0 0 0 0
0.52248031 0.17559962 1.2277952 0 0 0 0 0
0.52273244 0.17555922 1.2279798 0 0 0 0 0
0.52338517 0.17545463 1.2284576 0 0 0 0 0
0.52338517 0.17545463 1.2284576 0 0 0 0 0
0.52408236 0.17534292 1.2289679 0 0 0 0 0
0.52408236 0.17534292 1.2289679 0 0 0 0 0
0.52478266 0.1752307 1.2294805 0 0 0 0 0
0.52478266 0.1752307 1.2294805 0 0 0 0 0
0.52551496 0.17511335 1.2300166 0 0 0 0 0
0.52551496 0.17511335 1.2300166 0 0 0 0 0
0.52633792 0.17498147 1.230619 0 0 0 0 0
0.52758205 0.17478211 1.2315296 0 0 0 0 0
0.52946508 0.17448036 1.232908 0 0 0 0 0
0.51836073 0.17625976 1.2247797 0 0 0 0 0
0.5174849 0.17640011 1.2241386 0 0 0 0 0
0.51749796 0.17639802 1.2241482 0 0 0 0 0
0.51764089 0.17637512 1.2242528 0 0 0 0 0
0.51717401 0.17644992 1.223911 0 0 0 0 0
0.51762789 0.17637719 1.2242433 0 0 0 0 0
0.51782489 0.17634563 1.2243875 0 0 0 0 0
0.5174253 0.17640966 1.224095 0 0 0 0 0
0.51771176 0.17636377 1.2243047 0 0 0 0 0
0.5178203 0.17634636 1.2243841 0 0 0 0 0
0.51747966 0.17640096 1.2241348 0 0 0 0 0
0.51777565 0.17635351 1.2243514 0 0 0 0 0
0.51753402 0.17639224 1.2241745 0 0 0 0 0
0.51747525 0.17640166 1.2241316 0 0 0 0 0
0.51766729 0.17637089 1.2242721 0 0 0 0 0
0.51832229 0.17626593 1.2247516 0 0 0 0 0
0.51845932 0.17624398 1.2248518 0 0 0 0 0
0.51837754 0.17625707 1.224792 0 0 0 0 0
0.51830351 0.17626894 1.2247378 0 0 0 0 0
0.51775277 0.17635718 1.2243347 0 0 0 0 0
0.51693255 0.17648862 1.2237343 0 0 0 0 0
0.51719677 0.17644627 1.2239277 0 0 0 0 0
0.51809794 0.17630188 1.2245873 0 0 0 0 0
0.51810163 0.17630129 1.2245901 0 0 0 0 0
0.51848078 0.17624053 1.2248676 0 0 0 0 0
0.5185023 0.17623708 1.2248833 0 0 0 0 0
0.51836789 0.17625861 1.224785 0 0 0 0 0
0.51864606 0.17621404 1.2249886 0 0 0 0 0
0.51876473 0.17619503 1.2250755 0 0 0 0 0
0.518511 0.17623569 1.2248898 0 0 0 0 0
0.51837581 0.17625734 1.2247907 0 0 0 0 0
0.51869494 0.17620622 1.2250243 0 0 0 0 0
0.519077 0.17614499 1.225304 0 0 0 0 0
0.51904821 0.17614961 1.2252829 0 0 0 0 0
0.51926291 0.1761152 1.2254401 0 0 0 0 0
0.51959205 0.17606245 1.2256811 0 0 0 0 0
0.52003223 0.17599192 1.2260032 0 0 0 0 0
0.51963603 0.1760554 1.2257133 0 0 0 0 0
0.51970804 0.17604387 1.2257659 0 0 0 0 0
0.51960814 0.17605987 1.2256929 0 0 0 0 0
0.51979506 0.17602992 1.2258296 0 0 0 0 0
0.52009118 0.17598248 1.2260463 0 0 0 0 0
0.52033472 0.17594345 1.2262247 0 0 0 0 0
0.52053189 0.17591184 1.226369 0 0 0 0 0
0.52101386 0.17583461 1.2267218 0 0 0 0 0
0.52124768 0.17579715 1.2268929 0 0 0 0 0
0.52140975 0.17577118 1.2270116 0 0 0 0 0
0.52180976 0.17570707 1.2273043 0 0 0 0 0
0.5221073 0.1756594 1.2275221 0 0 0 0 0
0.5221073 0.1756594 1.2275221 0 0 0 0 0
0.52282465 0.17554446 1.2280473 0 0 0 0 0
0.52282465 0.17554446 1.2280473 0 0 0 0 0
0.52355194 0.17542791 1.2285796 0 0 0 0 0
0.52355194 0.17542791 1.2285796 0 0 0 0 0
0.52413356 0.17533471 1.2290053 0 0 0 0 0
0.52413356 0.17533471 1.2290053 0 0 0 0 0
0.52491945 0.17520876 1.2295806 0 0 0 0 0
0.52491945 0.17520876 1.2295806 0 0 0 0 0
0.52581841 0.17506471 1.2302387 0 0 0 0 0
0.52722657 0.17483906 1.2312695 0 0 0 0 0
0.51801914 0.1763145 1.2245296 0 0 0 0 0
0.51735723 0.17642057 1.2240452 0 0 0 0 0
0.51718527 0.17644812 1.2239193 0 0 0 0 0
0.51722062 0.17644246 1.2239451 0 0 0 0 0
0.51656687 0.17654721 1.2234666 0 0 0 0 0
0.51702583 0.17647368 1.2238026 0 0 0 0 0
0.51743758 0.17640769 1.2241039 0 0 0 0 0
0.51714319 0.17645487 1.2238885 0 0 0 0 0
0.51723599 0.17644 1.2239563 0 0 0 0 0
0.51715136 0.17645356 1.2238945 0 0 0 0 0
0.51704472 0.17647065 1.2238164 0 0 0 0 0
0.51724422 0.17643867 1.2239624 0 0 0 0 0
0.51717895 0.17644913 1.2239146 0 0 0 0 0
0.51687032 0.17649859 1.2236887 0 0 0 0 0
0.51711321 0.17645967 1.2238666 0 0 0 0 0
0.51742172 0.17641023 1.2240924 0 0 0 0 0
0.51745886 0.17640428 1.2241195 0 0 0 0 0
0.5179143 0.17633131 1.2244529 0 0 0 0 0
0.51730537 0.17642888 1.2240071 0 0 0 0 0
0.51688248 0.17649665 1.2236977 0 0 0 0 0
0.51709604 0.17646243 1.2238539 0 0 0 0 0
0.51740009 0.1764137 1.2240765 0 0 0 0 0
0.51779389 0.17635059 1.2243648 0 0 0 0 0
0.51799232 0.17631879 1.2245101 0 0 0 0 0
0.5182265 0.17628127 1.2246815 0 0 0 0 0
0.518098 0.17630187 1.2245874 0 0 0 0 0
0.51802492 0.17631358 1.2245339 0 0 0 0 0
0.51796216 0.17632364 1.2244879 0 0 0 0 0
0.51780564 0.17634872 1.2243733 0 0 0 0 0
0.51810563 0.17630064 1.2245929 0 0 0 0 0
0.51828617 0.17627172 1.2247251 0 0 0 0 0
0.51860946 0.17621991 1.2249618 0 0 0 0 0
0.51844412 0.1762464 1.2248408 0 0 0 0 0
0.51890731 0.17617218 1.2251798 0 0 0 0 0
0.51914108 0.17613472 1.225351 0 0 0 0 0
0.51917726 0.17612892 1.2253774 0 0 0 0 0
0.51922917 0.17612061 1.2254153 0 0 0 0 0
0.51944 0.17608681 1.2255697 0 0 0 0 0
0.5191828 0.17612803 1.2253815 0 0 0 0 0
0.51885116 0.17618117 1.2251387 0 0 0 0 0
0.51907176 0.17614582 1.2253002 0 0 0 0 0
0.51970702 0.17604403 1.2257651 0 0 0 0 0
0.51989609 0.17601374 1.2259035 0 0 0 0 0
0.51990944 0.17601159 1.2259133 0 0 0 0 0
0.52029085 0.17595048 1.2261925 0 0 0 0 0
0.52068895 0.17588669 1.2264839 0 0 0 0 0
0.52083814 0.17586277 1.2265931 0 0 0 0 0
0.52143526 0.17576709 1.2270303 0 0 0 0 0
0.52143526 0.17576709 1.2270303 0 0 0 0 0
0.52166331 0.17573054 1.2271972 0 0 0 0 0
0.52166331 0.17573054 1.2271972 0 0 0 0 0
0.52227789 0.17563206 1.2276471 0 0 0 0 0
0.52227789 0.17563206 1.2276471 0 0 0 0 0
0.52291274 0.17553033 1.2281117 0 0 0 0 0
0.52291274 0.17553033 1.2281117 0 0 0 0 0
0.52362138 0.17541678 1.2286304 0 0 0 0 0
0.52362138 0.17541678 1.2286304 0 0 0 0 0
0.52427346 0.1753123 1.2291077 0 0 0 0 0
0.52427346 0.1753123 1.2291077 0 0 0 0 0
0.52542633 0.17512755 1.2299516 0 0 0 0 0
0.52542633 0.17512755 1.2299516 0 0 0 0 0
0.52684861 0.17489964 1.2309928 0 0 0 0 0
0.51740932 0.17641222 1.2240833 0 0 0 0 0
0.51685905 0.17650039 1.2236805 0 0 0 0 0
0.51657099 0.17654656 1.2234696 0 0 0 0 0
0.51669014 0.17652747 1.2235569 0 0 0 0 0
0.51692927 0.17648914 1.2237319 0 0 0 0 0
0.51704758 0.17647019 1.2238185 0 0 0 0 0
0.51671672 0.17652321 1.2235763 0 0 0 0 0
0.51674634 0.17651847 1.223598 0 0 0 0 0
0.51684088 0.17650332 1.2236671 0 0 0 0 0
0.51706058 0.1764681 1.223828 0 0 0 0 0
0.51667202 0.17653038 1.2235435 0 0 0 0 0
0.51688367 0.17649645 1.2236985 0 0 0 0 0
0.5166989 0.17652605 1.2235633 0 0 0 0 0
0.51650047 0.17655785 1.223418 0 0 0 0 0
0.51633257 0.17658477 1.2232951 0 0 0 0 0
0.51671314 0.17652379 1.2235737 0 0 0 0 0
0.51697493 0.17648184 1.2237653 0 0 0 0 0
0.51730973 0.17642818 1.2240103 0 0 0 0 0
0.51707661 0.17646554 1.2238398 0 0 0 0 0
0.51720977 0.1764442 1.2239372 0 0 0 0 0
0.5169307 0.17648891 1.2237329 0 0 0 0 0
0.51647389 0.17656212 1.2233986 0 0 0 0 0
0.51729971 0.17642978 1.2240031 0 0 0 0 0
0.51767892 0.17636901 1.2242806 0 0 0 0 0
0.5178808 0.17633668 1.2244284 0 0 0 0 0
0.51769638 0.17636622 1.2242934 0 0 0 0 0
0.51782459 0.17634568 1.2243873 0 0 0 0 0
0.51765841 0.1763723 1.2242656 0 0 0 0 0
0.51766568 0.17637114 1.2242709 0 0 0 0 0
0.51747948 0.17640099 1.2241346 0 0 0 0 0
0.51797503 0.17632157 1.2244974 0 0 0 0 0
0.51792479 0.17632963 1.2244606 0 0 0 0 0
0.51769394 0.17636661 1.2242916 0 0 0 0 0
0.51808411 0.17630409 1.2245772 0 0 0 0 0
0.51847082 0.17624213 1.2248603 0 0 0 0 0
0.51803172 0.17631249 1.2245389 0 0 0 0 0
0.518749 0.17619754 1.2250639 0 0 0 0 0
0.51853573 0.17623173 1.2249078 0 0 0 0 0
0.51897156 0.17616189 1.2252269 0 0 0 0 0
0.51879537 0.17619011 1.2250979 0 0 0 0 0
0.51893771 0.17616731 1.2252021 0 0 0 0 0
0.51920199 0.17612496 1.2253954 0 0 0 0 0
0.51954436 0.17607009 1.2256461 0 0 0 0 0
0.51938778 0.17609519 1.2255315 0 0 0 0 0
0.51979238 0.17603035 1.2258277 0 0 0 0 0
0.51993865 0.17600691 1.2259347 0 0 0 0 0
0.5202899 0.17595063 1.2261919 0 0 0 0 0
0.5202899 0.17595063 1.2261919 0 0 0 0 0
0.52071422 0.17588264 1.2265024 0 0 0 0 0
0.52071422 0.17588264 1.2265024 0 0 0 0 0
0.52120429 0.17580411 1.2268611 0 0 0 0 0
0.52120429 0.17580411 1.2268611 0 0 0 0 0
0.52174544 0.17571738 1.2272573 0 0 0 0 0
0.52174544 0.17571738 1.2272573 0 0 0 0 0
0.52243561 0.1756068 1.2277625 0 0 0 0 0
0.52243561 0.1756068 1.2277625 0 0 0 0 0
0.52297801 0.17551987 1.2281595 0 0 0 0 0
0.52297801 0.17551987 1.2281595 0 0 0 0 0
0.52370107 0.17540401 1.2286887 0 0 0 0 0
0.52370107 0.17540401 1.2286887 0 0 0 0 0
0.52489746 0.17521229 1.2295645 0 0 0 0 0
0.52489746 0.17521229 1.2295645 0 0 0 0 0
0.5267036 0.17492287 1.2308866 0 0 0 0 0
0.5166654 0.17653143 1.2235388 0 0 0 0 0
0.51612067 0.17661871 1.22314 0 0 0 0 0
0.51623797 0.17659992 1.2232258 0 0 0 0 0
0.51615751 0.17661281 1.2231669 0 0 0 0 0
0.51619685 0.17660652 1.2231958 0 0 0 0 0
0.51653218 0.17655279 1.2234412 0 0 0 0 0
0.51647234 0.17656237 1.2233974 0 0 0 0 0
0.51639819 0.17657425 1.2233431 0 0 0 0 0
0.51636761 0.17657915 1.2233207 0 0 0 0 0
0.51628554 0.17659231 1.2232606 0 0 0 0 0
0.51628047 0.17659311 1.2232569 0 0 0 0 0
0.51650506 0.17655712 1.2234213 0 0 0 0 0
0.51612377 0.17661822 1.2231423 0 0 0 0 0
0.5161711 0.17661065 1.2231768 0 0 0 0 0
0.51612568 0.17661792 1.2231437 0 0 0 0 0
0.51647365 0.17656216 1.2233984 0 0 0 0 0
0.51676786 0.17651501 1.2236137 0 0 0 0 0
0.51671493 0.17652349 1.223575 0 0 0 0 0
0.51722395 0.17644192 1.2239476 0 0 0 0 0
0.51678467 0.17651232 1.223626 0 0 0 0 0
0.51615125 0.17661382 1.2231624 0 0 0 0 0
0.51642895 0.17656933 1.2233657 0 0 0 0 0
0.51669729 0.17652632 1.2235621 0 0 0 0 0
0.51712871 0.1764572 1.2238778 0 0 0 0 0
0.51749432 0.17639861 1.2241455 0 0 0 0 0
0.5174914 0.17639907 1.2241434 0 0 0 0 0
0.51746708 0.17640297 1.2241255 0 0 0 0 0
0.51771212 0.17636369 1.2243049 0 0 0 0 0
0.51753914 0.17639141 1.2241783 0 0 0 0 0
0.51770973 0.17636408 1.2243032 0 0 0 0 0
0.5174678 0.17640285 1.2241261 0 0 0 0 0
0.5174436 0.17640673 1.2241083 0 0 0 0 0
0.51752818 0.17639317 1.2241703 0 0 0 0 0
0.51771843 0.17636269 1.2243096 0 0 0 0 0
0.51786715 0.17633885 1.2244184 0 0 0 0 0
0.51788318 0.17633629 1.2244301 0 0 0 0 0
0.51776654 0.17635499 1.2243447 0 0 0 0 0
0.51790416 0.17633292 1.2244455 0 0 0 0 0
0.51837981 0.1762567 1.2247937 0 0 0 0 0
0.51856202 0.17622751 1.2249271 0 0 0 0 0
0.51869464 0.17620626 1.2250241 0 0 0 0 0
0.51871687 0.1762027 1.2250404 0 0 0 0 0
0.51888895 0.17617512 1.2251663 0 0 0 0 0
0.51877707 0.17619304 1.2250844 0 0 0 0 0
0.51896644 0.1761627 1.2252231 0 0 0 0 0
0.51927936 0.17611256 1.2254521 0 0 0 0 0
0.51927936 0.17611256 1.2254521 0 0 0 0 0
0.51952261 0.17607358 1.2256302 0 0 0 0 0
0.51952261 0.17607358 1.2256302 0 0 0 0 0
0.52009565 0.17598176 1.2260497 0 0 0 0 0
0.52009565 0.17598176 1.2260497 0 0 0 0 0
0.52062005 0.17589772 1.2264335 0 0 0 0 0
0.52062005 0.17589772 1.2264335 0 0 0 0 0
0.52113885 0.17581458 1.2268132 0 0 0 0 0
0.52113885 0.17581458 1.2268132 0 0 0 0 0
0.5217306 0.17571977 1.2272464 0 0 0 0 0
0.5217306 0.17571977 1.2272464 0 0 0 0 0
0.52226061 0.17563483 1.2276344 0 0 0 0 0
0.52226061 0.17563483 1.2276344 0 0 0 0 0
0.52299833 0.17551662 1.2281744 0 0 0 0 0
0.52299833 0.17551662 1.2281744 0 0 0 0 0
0.52438372 0.17529462 1.2291884 0 0 0 0 0
0.52438372 0.17529462 1.2291884 0 0 0 0 0
0.5162015 0.17660576 1.2231991 0 0 0 0 0
0.51563692 0.17669624 1.2227859 0 0 0 0 0
0.51569325 0.17668721 1.2228271 0 0 0 0 0
0.5159896 0.17663972 1.223044 0 0 0 0 0
0.51602161 0.17663459 1.2230674 0 0 0 0 0
0.51587117 0.1766587 1.2229574 0 0 0 0 0
0.51590097 0.17665392 1.2229792 0 0 0 0 0
0.51607174 0.17662656 1.2231042 0 0 0 0 0
0.51593304 0.17664878 1.2230027 0 0 0 0 0
0.51582408 0.17666624 1.2229229 0 0 0 0 0
0.51591665 0.17665142 1.2229906 0 0 0 0 0
0.51590431 0.17665339 1.2229817 0 0 0 0 0
0.51539397 0.17673518 1.2226081 0 0 0 0 0
0.51552826 0.17671365 1.2227063 0 0 0 0 0
0.51527053 0.17675495 1.2225177 0 0 0 0 0
0.51598495 0.17664047 1.2230407 0 0 0 0 0
0.51629508 0.17659077 1.2232677 0 0 0 0 0
0.51658654 0.17654407 1.2234809 0 0 0 0 0
0.51657701 0.17654559 1.223474 0 0 0 0 0
0.51629502 0.17659079 1.2232676 0 0 0 0 0
0.51606983 0.17662686 1.2231028 0 0 0 0 0
0.51625943 0.17659649 1.2232416 0 0 0 0 0
0.51567537 0.17669007 1.2228141 0 0 0 0 0
0.51603788 0.17663199 1.2230794 0 0 0 0 0
0.51640022 0.17657392 1.2233446 0 0 0 0 0
0.51672268 0.17652225 1.2235806 0 0 0 0 0
0.51657528 0.17654587 1.2234727 0 0 0 0 0
0.51686299 0.17649977 1.2236834 0 0 0 0 0
0.51716769 0.17645094 1.2239064 0 0 0 0 0
0.51711798 0.17645891 1.22387 0 0 0 0 0
0.51700228 0.17647745 1.2237853 0 0 0 0 0
0.51698452 0.17648029 1.2237723 0 0 0 0 0
0.51657921 0.17654525 1.2234756 0 0 0 0 0
0.51694864 0.17648605 1.2237461 0 0 0 0 0
0.51751482 0.17639531 1.2241606 0 0 0 0 0
0.5172863 0.17643194 1.2239932 0 0 0 0 0
0.51761073 0.17637995 1.2242306 0 0 0 0 0
0.51736605 0.17641915 1.2240516 0 0 0 0 0
0.51812226 0.17629798 1.2246051 0 0 0 0 0
0.51803333 0.17631222 1.22454 0 0 0 0 0
0.51824319 0.17627859 1.2246937 0 0 0 0 0
0.51813591 0.17629579 1.2246151 0 0 0 0 0
0.51801896 0.17631453 1.2245295 0 0 0 0 0
0.51806253 0.17630754 1.2245615 0 0 0 0 0
0.51806253 0.17630754 1.2245615 0 0 0 0 0
0.51809001 0.17630315 1.2245815 0 0 0 0 0
0.51809001 0.17630315 1.2245815 0 0 0 0 0
0.51883876 0.17618316 1.2251296 0 0 0 0 0
0.51883876 0.17618316 1.2251296 0 0 0 0 0
0.51903808 0.17615123 1.2252755 0 0 0 0 0
0.51903808 0.17615123 1.2252755 0 0 0 0 0
0.51948041 0.17608035 1.2255993 0 0 0 0 0
0.51948041 0.17608035 1.2255993 0 0 0 0 0
0.5200724 0.17598549 1.2260326 0 0 0 0 0
0.5200724 0.17598549 1.2260326 0 0 0 0 0
0.52062047 0.17589766 1.2264338 0 0 0 0 0
0.52062047 0.17589766 1.2264338 0 0 0 0 0
0.52099752 0.17583723 1.2267098 0 0 0 0 0
0.52099752 0.17583723 1.2267098 0 0 0 0 0
0.5216307 0.17573577 1.2271733 0 0 0 0 0
0.5216307 0.17573577 1.2271733 0 0 0 0 0
0.5226326 0.17557523 1.2279067 0 0 0 0 0
0.5226326 0.17557523 1.2279067 0 0 0 0 0
0.51591676 0.1766514 1.2229908 0 0 0 0 0
0.51547378 0.17672238 1.2226665 0 0 0 0 0
0.51559317 0.17670324 1.2227539 0 0 0 0 0
0.51596594 0.17664351 1.2230268 0 0 0 0 0
0.5157584 0.17667678 1.2228748 0 0 0 0 0
0.51555842 0.17670882 1.2227285 0 0 0 0 0
0.51531774 0.17674738 1.2225523 0 0 0 0 0
0.51544309 0.17672729 1.222644 0 0 0 0 0
0.51524311 0.17675933 1.2224976 0 0 0 0 0
0.51534361 0.17674324 1.2225711 0 0 0 0 0
0.51530629 0.17674921 1.2225438 0 0 0 0 0
0.51530647 0.17674918 1.222544 0 0 0 0 0
0.51464182 0.1768557 1.2220575 0 0 0 0 0
0.51462102 0.17685902 1.2220423 0 0 0 0 0
0.51497793 0.17680183 1.2223035 0 0 0 0 0
0.51509964 0.17678232 1.2223926 0 0 0 0 0
0.51555526 0.17670932 1.2227261 0 0 0 0 0
0.51607978 0.17662527 1.2231101 0 0 0 0 0
0.51601976 0.17663489 1.2230661 0 0 0 0 0
0.51614684 0.17661452 1.2231592 0 0 0 0 0
0.51593399 0.17664863 1.2230034 0 0 0 0 0
0.5157181 0.17668323 1.2228453 0 0 0 0 0
0.51580447 0.17666939 1.2229085 0 0 0 0 0
0.51528013 0.1767534 1.2225248 0 0 0 0 0
0.5161804 0.17660914 1.2231838 0 0 0 0 0
0.51564187 0.17669544 1.2227895 0 0 0 0 0
0.51618129 0.17660901 1.2231843 0 0 0 0 0
0.51638383 0.17657655 1.2233326 0 0 0 0 0
0.51681423 0.17650758 1.2236477 0 0 0 0 0
0.51666427 0.17653161 1.2235379 0 0 0 0 0
0.51663232 0.17653672 1.2235146 0 0 0 0 0
0.51642358 0.17657018 1.2233617 0 0 0 0 0
0.5165143 0.17655563 1.2234281 0 0 0 0 0
0.51694888 0.17648602 1.2237462 0 0 0 0 0
0.51691097 0.17649208 1.2237185 0 0 0 0 0
0.51697135 0.17648239 1.2237628 0 0 0 0 0
0.51670557 0.176525 1.2235682 0 0 0 0 0
0.51656795 0.17654705 1.2234674 0 0 0 0 0
0.51679432 0.17651078 1.2236331 0 0 0 0 0
0.51729733 0.17643017 1.2240013 0 0 0 0 0
0.51753592 0.17639193 1.2241759 0 0 0 0 0
0.51740283 0.17641325 1.2240785 0 0 0 0 0
0.51729798 0.17643006 1.2240018 0 0 0 0 0
0.51729798 0.17643006 1.2240018 0 0 0 0 0
0.51759422 0.17638259 1.2242186 0 0 0 0 0
0.51759422 0.17638259 1.2242186 0 0 0 0 0
0.51805902 0.17630811 1.2245588 0 0 0 0 0
0.51805902 0.17630811 1.2245588 0 0 0 0 0
0.51801616 0.17631498 1.2245275 0 0 0 0 0
0.51801616 0.17631498 1.2245275 0 0 0 0 0
0.51869452 0.17620628 1.2250241 0 0 0 0 0
0.51869452 0.17620628 1.2250241 0 0 0 0 0
0.5190295 0.1761526 1.2252692 0 0 0 0 0
0.5190295 0.1761526 1.2252692 0 0 0 0 0
0.51941949 0.17609011 1.2255547 0 0 0 0 0
0.51941949 0.17609011 1.2255547 0 0 0 0 0
0.51991361 0.17601092 1.2259164 0 0 0 0 0
0.51991361 0.17601092 1.2259164 0 0 0 0 0
0.52038884 0.17593478 1.2262642 0 0 0 0 0
0.52038884 0.17593478 1.2262642 0 0 0 0 0
0.52093589 0.17584711 1.2266648 0 0 0 0 0
0.52093589 0.17584711 1.2266648 0 0 0 0 0
0.52212143 0.17565714 1.2275325 0 0 0 0 0
0.52212143 0.17565714 1.2275325 0 0 0 0 0
0.51544863 0.17672642 1.222648 0 0 0 0 0
0.5151031 0.17678177 1.2223952 0 0 0 0 0
0.5152421 0.17675951 1.2224969 0 0 0 0 0
0.51564592 0.1766948 1.2227925 0 0 0 0 0
0.51549518 0.17671895 1.2226821 0 0 0 0 0
0.51549745 0.17671858 1.2226838 0 0 0 0 0
0.51510072 0.17678216 1.2223934 0 0 0 0 0
0.51523054 0.17676136 1.2224884 0 0 0 0 0
0.51520985 0.17676467 1.2224733 0 0 0 0 0
0.51492524 0.17681028 1.222265 0 0 0 0 0
0.51490533 0.17681347 1.2222503 0 0 0 0 0
0.51493156 0.17680927 1.2222695 0 0 0 0 0
0.51454794 0.17687073 1.2219888 0 0 0 0 0
0.51468593 0.17684864 1.2220898 0 0 0 0 0
0.51476234 0.17683639 1.2221457 0 0 0 0 0
0.51455027 0.17687038 1.2219905 0 0 0 0 0
0.51535618 0.17674123 1.2225804 0 0 0 0 0
0.51551169 0.17671631 1.2226942 0 0 0 0 0
0.51520115 0.17676607 1.2224669 0 0 0 0 0
0.51519388 0.17676723 1.2224616 0 0 0 0 0
0.51524305 0.17675936 1.2224976 0 0 0 0 0
0.51541466 0.17673185 1.2226232 0 0 0 0 0
0.51550442 0.17671748 1.2226889 0 0 0 0 0
0.51572078 0.1766828 1.2228472 0 0 0 0 0
0.51560563 0.17670125 1.2227629 0 0 0 0 0
0.51560152 0.1767019 1.22276 0 0 0 0 0
0.51612687 0.17661773 1.2231445 0 0 0 0 0
0.5162369 0.1766001 1.2232251 0 0 0 0 0
0.51632857 0.17658541 1.2232922 0 0 0 0 0
0.51643151 0.17656891 1.2233676 0 0 0 0 0
0.51682371 0.17650607 1.2236546 0 0 0 0 0
0.5164603 0.17656429 1.2233886 0 0 0 0 0
0.51668316 0.17652859 1.2235518 0 0 0 0 0
0.51695573 0.17648491 1.2237512 0 0 0 0 0
0.51678789 0.17651179 1.2236284 0 0 0 0 0
0.51669312 0.17652699 1.223559 0 0 0 0 0
0.5164032 0.17657346 1.2233468 0 0 0 0 0
0.51656753 0.17654711 1.2234671 0 0 0 0 0
0.51674241 0.1765191 1.2235951 0 0 0 0 0
0.51667124 0.1765305 1.223543 0 0 0 0 0
0.51664102 0.17653534 1.2235209 0 0 0 0 0
0.51648009 0.17656113 1.2234031 0 0 0 0 0
0.51648009 0.17656113 1.2234031 0 0 0 0 0
0.51686919 0.17649877 1.2236879 0 0 0 0 0
0.51686919 0.17649877 1.2236879 0 0 0 0 0
0.517506 0.17639673 1.224154 0 0 0 0 0
0.517506 0.17639673 1.224154 0 0 0 0 0
0.51770288 0.17636518 1.2242981 0 0 0 0 0
0.51770288 0.17636518 1.2242981 0 0 0 0 0
0.51766062 0.17637195 1.2242672 0 0 0 0 0
0.51766062 0.17637195 1.2242672 0 0 0 0 0
0.51822186 0.17628202 1.224678 0 0 0 0 0
0.51822186 0.17628202 1.224678 0 0 0 0 0
0.51834577 0.17626216 1.2247688 0 0 0 0 0
0.51834577 0.17626216 1.2247688 0 0 0 0 0
0.51894957 0.17616542 1.2252107 0 0 0 0 0
0.51894957 0.17616542 1.2252107 0 0 0 0 0
0.51937389 0.17609741 1.2255213 0 0 0 0 0
0.51937389 0.17609741 1.2255213 0 0 0 0 0
0.51970154 0.17604491 1.2257612 0 0 0 0 0
0.51970154 0.17604491 1.2257612 0 0 0 0 0
0.52038556 0.1759353 1.2262619 0 0 0 0 0
0.52038556 0.1759353 1.2262619 0 0 0 0 0
0.52167308 0.17572898 1.2272043 0 0 0 0 0
0.52167308 0.17572898 1.2272043 0 0 0 0 0
0.51507753 0.17678587 1.2223765 0 0 0 0 0
0.51496762 0.17680348 1.222296 0 0 0 0 0
0.51472819 0.17684186 1.2221206 0 0 0 0 0
0.51511425 0.17677999 1.2224033 0 0 0 0 0
0.514844 0.1768233 1.2222055 0 0 0 0 0
0.514983 0.17680103 1.2223072 0 0 0 0 0
0.51481444 0.17682804 1.2221838 0 0 0 0 0
0.51453918 0.17687215 1.2219824 0 0 0 0 0
0.51457638 0.17686617 1.2220095 0 0 0 0 0
0.51460809 0.17686111 1.2220328 0 0 0 0 0
0.51472747 0.17684196 1.2221202 0 0 0 0 0
0.51473421 0.1768409 1.2221251 0 0 0 0 0
0.51480365 0.17682977 1.222176 0 0 0 0 0
0.51502115 0.17679492 1.2223351 0 0 0 0 0
0.51481348 0.17682819 1.2221831 0 0 0 0 0
0.51518571 0.17676854 1.2224556 0 0 0 0 0
0.51487678 0.17681804 1.2222295 0 0 0 0 0
0.51500165 0.17679803 1.2223209 0 0 0 0 0
0.51518697 0.17676835 1.2224565 0 0 0 0 0
0.51480323 0.17682983 1.2221756 0 0 0 0 0
0.51498556 0.17680061 1.2223091 0 0 0 0 0
0.51537466 0.17673826 1.2225939 0 0 0 0 0
0.5153271 0.17674589 1.2225591 0 0 0 0 0
0.51463372 0.17685699 1.2220516 0 0 0 0 0
0.51522654 0.176762 1.2224855 0 0 0 0 0
0.51571125 0.17668432 1.2228403 0 0 0 0 0
0.51602596 0.17663389 1.2230706 0 0 0 0 0
0.51585156 0.17666183 1.2229431 0 0 0 0 0
0.51603276 0.17663281 1.2230756 0 0 0 0 0
0.51619321 0.1766071 1.223193 0 0 0 0 0
0.51596451 0.17664374 1.2230257 0 0 0 0 0
0.51593399 0.17664863 1.2230034 0 0 0 0 0
0.51638335 0.17657663 1.2233323 0 0 0 0 0
0.51632667 0.1765857 1.2232908 0 0 0 0 0
0.51607406 0.17662619 1.2231059 0 0 0 0 0
0.51617944 0.17660929 1.223183 0 0 0 0 0
0.51619244 0.17660722 1.2231926 0 0 0 0 0
0.5161854 0.17660835 1.2231873 0 0 0 0 0
0.51626456 0.17659566 1.2232453 0 0 0 0 0
0.51621115 0.17660423 1.2232062 0 0 0 0 0
0.51621115 0.17660423 1.2232062 0 0 0 0 0
0.51633984 0.1765836 1.2233005 0 0 0 0 0
0.51633984 0.1765836 1.2233005 0 0 0 0 0
0.51643455 0.17656842 1.2233697 0 0 0 0 0
0.51643455 0.17656842 1.2233697 0 0 0 0 0
0.51656717 0.17654717 1.2234669 0 0 0 0 0
0.51656717 0.17654717 1.2234669 0 0 0 0 0
0.5171513 0.17645358 1.2238944 0 0 0 0 0
0.5171513 0.17645358 1.2238944 0 0 0 0 0
0.51703721 0.17647186 1.2238109 0 0 0 0 0
0.51703721 0.17647186 1.2238109 0 0 0 0 0
0.51726204 0.17643583 1.2239754 0 0 0 0 0
0.51726204 0.17643583 1.2239754 0 0 0 0 0
0.51748091 0.17640075 1.2241356 0 0 0 0 0
0.51748091 0.17640075 1.2241356 0 0 0 0 0
0.5179677 0.17632274 1.224492 0 0 0 0 0
0.5179677 0.17632274 1.224492 0 0 0 0 0
0.51835465 0.17626074 1.2247752 0 0 0 0 0
0.51835465 0.17626074 1.2247752 0 0 0 0 0
0.51872498 0.1762014 1.2250463 0 0 0 0 0
0.51872498 0.1762014 1.2250463 0 0 0 0 0
0.51908356 0.17614393 1.2253088 0 0 0 0 0
0.51908356 0.17614393 1.2253088 0 0 0 0 0
0.51971304 0.17604306 1.2257695 0 0 0 0 0
0.51971304 0.17604306 1.2257695 0 0 0 0 0
0.51480556 0.17682946 1.2221773 0 0 0 0 0
0.51426208 0.17691655 1.2217795 0 0 0 0 0
0.51457363 0.17686662 1.2220075 0 0 0 0 0
0.5143131 0.17690837 1.2218169 0 0 0 0 0
0.51421493 0.17692411 1.221745 0 0 0 0 0
0.51439583 0.17689511 1.2218775 0 0 0 0 0
0.51387006 0.17697936 1.2214925 0 0 0 0 0
0.51424575 0.17691916 1.2217675 0 0 0 0 0
0.51430535 0.17690961 1.2218112 0 0 0 0 0
0.51434731 0.17690289 1.2218419 0 0 0 0 0
0.51473981 0.17683999 1.2221292 0 0 0 0 0
0.5148806 0.17681743 1.2222323 0 0 0 0 0
0.51487315 0.17681862 1.2222269 0 0 0 0 0
0.51461196 0.17686048 1.2220356 0 0 0 0 0
0.51470596 0.17684542 1.2221044 0 0 0 0 0
0.51483095 0.17682539 1.2221959 0 0 0 0 0
0.5142774 0.1769141 1.2217908 0 0 0 0 0
0.51483989 0.17682396 1.2222024 0 0 0 0 0
0.51439703 0.17689492 1.2218783 0 0 0 0 0
0.51510918 0.1767808 1.2223996 0 0 0 0 0
0.51533335 0.17674488 1.2225637 0 0 0 0 0
0.5149163 0.17681171 1.2222584 0 0 0 0 0
0.51480383 0.17682974 1.2221761 0 0 0 0 0
0.51502216 0.17679474 1.2223359 0 0 0 0 0
0.51517403 0.1767704 1.222447 0 0 0 0 0
0.51539642 0.17673478 1.2226099 0 0 0 0 0
0.51540053 0.17673412 1.2226129 0 0 0 0 0
0.51567471 0.17669018 1.2228136 0 0 0 0 0
0.51541162 0.17673235 1.222621 0 0 0 0 0
0.51522893 0.17676161 1.2224872 0 0 0 0 0
0.51545149 0.17672595 1.2226502 0 0 0 0 0
0.51557827 0.17670564 1.2227429 0 0 0 0 0
0.51578021 0.17667328 1.2228907 0 0 0 0 0
0.51587504 0.17665808 1.2229602 0 0 0 0 0
0.51543373 0.1767288 1.2226372 0 0 0 0 0
0.5157603 0.17667647 1.2228762 0 0 0 0 0
0.51561278 0.1767001 1.2227682 0 0 0 0 0
0.51581991 0.17666692 1.2229198 0 0 0 0 0
0.51581991 0.17666692 1.2229198 0 0 0 0 0
0.5158971 0.17665455 1.2229763 0 0 0 0 0
0.5158971 0.17665455 1.2229763 0 0 0 0 0
0.51580018 0.17667007 1.2229054 0 0 0 0 0
0.51580018 0.17667007 1.2229054 0 0 0 0 0
0.5161413 0.17661542 1.2231551 0 0 0 0 0
0.5161413 0.17661542 1.2231551 0 0 0 0 0
0.51639926 0.17657408 1.223344 0 0 0 0 0
0.51639926 0.17657408 1.223344 0 0 0 0 0
0.51643437 0.17656845 1.2233696 0 0 0 0 0
0.51643437 0.17656845 1.2233696 0 0 0 0 0
0.51659757 0.1765423 1.223489 0 0 0 0 0
0.51659757 0.1765423 1.223489 0 0 0 0 0
0.51695842 0.17648448 1.2237532 0 0 0 0 0
0.51695842 0.17648448 1.2237532 0 0 0 0 0
0.51688552 0.17649616 1.2236998 0 0 0 0 0
0.51688552 0.17649616 1.2236998 0 0 0 0 0
0.51705587 0.17646886 1.2238246 0 0 0 0 0
0.51705587 0.17646886 1.2238246 0 0 0 0 0
0.51728296 0.17643248 1.2239908 0 0 0 0 0
0.51728296 0.17643248 1.2239908 0 0 0 0 0
0.51770955 0.17636411 1.224303 0 0 0 0 0
0.51770955 0.17636411 1.224303 0 0 0 0 0
0.51809847 0.17630179 1.2245878 0 0 0 0 0
0.51809847 0.17630179 1.2245878 0 0 0 0 0
0.51846808 0.17624256 1.2248583 0 0 0 0 0
0.51846808 0.17624256 1.2248583 0 0 0 0 0
0.51898742 0.17615934 1.2252384 0 0 0 0 0
0.51898742 0.17615934 1.2252384 0 0 0 0 0
0.51430124 0.17691027 1.2218082 0 0 0 0 0
0.51409805 0.17694283 1.2216594 0 0 0 0 0
0.51420987 0.17692491 1.2217413 0 0 0 0 0
0.51424891 0.17691866 1.2217698 0 0 0 0 0
0.51409209 0.17694379 1.221655 0 0 0 0 0
0.51414871 0.17693472 1.2216965 0 0 0 0 0
0.51395524 0.17696571 1.2215549 0 0 0 0 0
0.51411831 0.17693959 1.2216742 0 0 0 0 0
0.51400697 0.17695743 1.2215928 0 0 0 0 0
0.5140624 0.17694855 1.2216333 0 0 0 0 0
0.51452267 0.17687479 1.2219703 0 0 0 0 0
0.51426846 0.17691553 1.2217842 0 0 0 0 0
0.51441348 0.1768923 1.2218903 0 0 0 0 0
0.51445073 0.17688632 1.2219176 0 0 0 0 0
0.51445192 0.17688613 1.2219185 0 0 0 0 0
0.51384586 0.17698325 1.2214749 0 0 0 0 0
0.5146901 0.17684796 1.2220929 0 0 0 0 0
0.51401448 0.17695622 1.2215983 0 0 0 0 0
0.51448226 0.17688127 1.2219406 0 0 0 0 0
0.51459241 0.17686361 1.2220213 0 0 0 0 0
0.5146234 0.17685865 1.222044 0 0 0 0 0
0.51477909 0.17683369 1.222158 0 0 0 0 0
0.51463181 0.17685729 1.2220502 0 0 0 0 0
0.5143528 0.17690201 1.2218459 0 0 0 0 0
0.51458573 0.17686468 1.2220165 0 0 0 0 0
0.51478827 0.17683223 1.2221646 0 0 0 0 0
0.51485956 0.17682081 1.2222168 0 0 0 0 0
0.5149107 0.17681262 1.2222543 0 0 0 0 0
0.51489705 0.17681479 1.2222443 0 0 0 0 0
0.51469433 0.17684728 1.2220958 0 0 0 0 0
0.51514983 0.17677429 1.2224294 0 0 0 0 0
0.51494575 0.17680699 1.22228 0 0 0 0 0
0.51501739 0.17679551 1.2223325 0 0 0 0 0
0.51541954 0.17673108 1.2226268 0 0 0 0 0
0.51540494 0.17673342 1.2226161 0 0 0 0 0
0.51515841 0.17677291 1.2224356 0 0 0 0 0
0.51515841 0.17677291 1.2224356 0 0 0 0 0
0.51512367 0.17677848 1.2224102 0 0 0 0 0
0.51512367 0.17677848 1.2224102 0 0 0 0 0
0.51542574 0.17673008 1.2226313 0 0 0 0 0
0.51542574 0.17673008 1.2226313 0 0 0 0 0
0.51557243 0.17670657 1.2227387 0 0 0 0 0
0.51557243 0.17670657 1.2227387 0 0 0 0 0
0.5153622 0.17674026 1.2225848 0 0 0 0 0
0.5153622 0.17674026 1.2225848 0 0 0 0 0
0.51569295 0.17668726 1.2228268 0 0 0 0 0
0.51569295 0.17668726 1.2228268 0 0 0 0 0
0.51581502 0.17666769 1.2229162 0 0 0 0 0
0.51581502 0.17666769 1.2229162 0 0 0 0 0
0.51603705 0.17663212 1.2230787 0 0 0 0 0
0.51603705 0.17663212 1.2230787 0 0 0 0 0
0.51625758 0.17659678 1.2232403 0 0 0 0 0
0.51625758 0.17659678 1.2232403 0 0 0 0 0
0.51651585 0.1765554 1.2234292 0 0 0 0 0
0.51651585 0.1765554 1.2234292 0 0 0 0 0
0.51653445 0.17655241 1.2234429 0 0 0 0 0
0.51653445 0.17655241 1.2234429 0 0 0 0 0
0.51655936 0.17654842 1.2234612 0 0 0 0 0
0.51655936 0.17654842 1.2234612 0 0 0 0 0
0.51667255 0.17653029 1.223544 0 0 0 0 0
0.51667255 0.17653029 1.223544 0 0 0 0 0
0.51713514 0.17645615 1.2238826 0 0 0 0 0
0.51713514 0.17645615 1.2238826 0 0 0 0 0
0.51750112 0.17639752 1.2241504 0 0 0 0 0
0.51750112 0.17639752 1.2241504 0 0 0 0 0
0.51785368 0.17634101 1.2244085 0 0 0 0 0
0.51785368 0.17634101 1.2244085 0 0 0 0 0
0.5184902 0.17623901 1.2248745 0 0 0 0 0
0.5184902 0.17623901 1.2248745 0 0 0 0 0
0.51381528 0.17698814 1.2214525 0 0 0 0 0
0.51392132 0.17697115 1.2215301 0 0 0 0 0
0.51383483 0.17698501 1.2214668 0 0 0 0 0
0.51371437 0.17700431 1.2213786 0 0 0 0 0
0.51363212 0.1770175 1.2213184 0 0 0 0 0
0.51359439 0.17702354 1.2212907 0 0 0 0 0
0.51385605 0.17698161 1.2214823 0 0 0 0 0
0.51407957 0.17694579 1.221646 0 0 0 0 0
0.51364338 0.17701569 1.2213266 0 0 0 0 0
0.51421303 0.17692441 1.2217436 0 0 0 0 0
0.51412994 0.17693773 1.2216828 0 0 0 0 0
0.51393932 0.17696826 1.2215433 0 0 0 0 0
0.51372695 0.1770023 1.2213879 0 0 0 0 0
0.513762 0.17699668 1.2214135 0 0 0 0 0
0.51343536 0.17704903 1.2211744 0 0 0 0 0
0.5141868 0.17692861 1.2217244 0 0 0 0 0
0.51416153 0.17693266 1.2217059 0 0 0 0 0
0.5138377 0.17698455 1.2214689 0 0 0 0 0
0.51400876 0.17695713 1.2215941 0 0 0 0 0
0.51411611 0.17693993 1.2216727 0 0 0 0 0
0.51416969 0.17693135 1.2217119 0 0 0 0 0
0.5143044 0.17690976 1.2218105 0 0 0 0 0
0.51452547 0.17687434 1.2219723 0 0 0 0 0
0.51432216 0.17690691 1.2218235 0 0 0 0 0
0.51408911 0.17694427 1.2216529 0 0 0 0 0
0.51462877 0.17685778 1.2220479 0 0 0 0 0
0.51440507 0.17689364 1.2218841 0 0 0 0 0
0.51440322 0.17689392 1.2218828 0 0 0 0 0
0.51469266 0.17684755 1.2220948 0 0 0 0 0
0.5147571 0.17683722 1.2221419 0 0 0 0 0
0.51437569 0.17689835 1.2218627 0 0 0 0 0
0.5140475 0.17695093 1.2216225 0 0 0 0 0
0.51468927 0.1768481 1.2220922 0 0 0 0 0
0.51503104 0.17679332 1.2223424 0 0 0 0 0
0.51503104 0.17679332 1.2223424 0 0 0 0 0
0.51489359 0.17681535 1.2222418 0 0 0 0 0
0.51489359 0.17681535 1.2222418 0 0 0 0 0
0.51499861 0.17679852 1.2223186 0 0 0 0 0
0.51499861 0.17679852 1.2223186 0 0 0 0 0
0.51489711 0.17681478 1.2222444 0 0 0 0 0
0.51489711 0.17681478 1.2222444 0 0 0 0 0
0.51481134 0.17682853 1.2221816 0 0 0 0 0
0.51481134 0.17682853 1.2221816 0 0 0 0 0
0.51506734 0.17678751 1.222369 0 0 0 0 0
0.51506734 0.17678751 1.222369 0 0 0 0 0
0.51503038 0.17679343 1.2223419 0 0 0 0 0
0.51503038 0.17679343 1.2223419 0 0 0 0 0
0.51511014 0.17678066 1.2224003 0 0 0 0 0
0.51511014 0.17678066 1.2224003 0 0 0 0 0
0.51512665 0.176778 1.2224123 0 0 0 0 0
0.51512665 0.176778 1.2224123 0 0 0 0 0
0.51537442 0.17673831 1.2225938 0 0 0 0 0
0.51537442 0.17673831 1.2225938 0 0 0 0 0
0.51557827 0.17670564 1.2227429 0 0 0 0 0
0.51557827 0.17670564 1.2227429 0 0 0 0 0
0.5158574 0.17666091 1.2229472 0 0 0 0 0
0.5158574 0.17666091 1.2229472 0 0 0 0 0
0.51587361 0.1766583 1.2229592 0 0 0 0 0
0.51587361 0.1766583 1.2229592 0 0 0 0 0
0.51590025 0.17665404 1.2229786 0 0 0 0 0
0.51590025 0.17665404 1.2229786 0 0 0 0 0
0.51627678 0.17659371 1.2232542 0 0 0 0 0
0.51627678 0.17659371 1.2232542 0 0 0 0 0
0.51665348 0.17653334 1.2235301 0 0 0 0 0
0.51665348 0.17653334 1.2235301 0 0 0 0 0
0.51678038 0.176513 1.2236229 0 0 0 0 0
0.51678038 0.176513 1.2236229 0 0 0 0 0
0.51709235 0.17646302 1.2238512 0 0 0 0 0
0.51709235 0.17646302 1.2238512 0 0 0 0 0
0.51361716 0.17701989 1.2213074 0 0 0 0 0
0.51328415 0.17707326 1.2210636 0 0 0 0 0
0.51332456 0.17706677 1.2210933 0 0 0 0 0
0.51316237 0.17709276 1.2209746 0 0 0 0 0
0.5134052 0.17705385 1.2211523 0 0 0 0 0
0.51351726 0.1770359 1.2212343 0 0 0 0 0
0.51332229 0.17706715 1.2210916 0 0 0 0 0
0.51374817 0.1769989 1.2214034 0 0 0 0 0
0.51368892 0.17700839 1.22136 0 0 0 0 0
0.51361966 0.17701949 1.2213093 0 0 0 0 0
0.51348054 0.17704178 1.2212075 0 0 0 0 0
0.51337278 0.17705905 1.2211286 0 0 0 0 0
0.51346445 0.17704436 1.2211957 0 0 0 0 0
0.51319331 0.17708781 1.2209972 0 0 0 0 0
0.51354152 0.17703201 1.2212521 0 0 0 0 0
0.51339477 0.17705552 1.2211447 0 0 0 0 0
0.51350677 0.17703758 1.2212267 0 0 0 0 0
0.51394808 0.17696686 1.2215496 0 0 0 0 0
0.51335078 0.17706257 1.2211125 0 0 0 0 0
0.51402903 0.1769539 1.2216089 0 0 0 0 0
0.51442975 0.17688967 1.2219023 0 0 0 0 0
0.5142132 0.17692438 1.2217437 0 0 0 0 0
0.51410377 0.17694192 1.2216636 0 0 0 0 0
0.51377094 0.17699525 1.22142 0 0 0 0 0
0.51386559 0.17698008 1.2214893 0 0 0 0 0
0.51418251 0.1769293 1.2217213 0 0 0 0 0
0.51400584 0.17695761 1.2215919 0 0 0 0 0
0.51435614 0.17690147 1.2218484 0 0 0 0 0
0.51429898 0.17691064 1.2218065 0 0 0 0 0
0.51378775 0.17699255 1.2214323 0 0 0 0 0
0.51401973 0.17695537 1.2216021 0 0 0 0 0
0.51425719 0.17691733 1.2217759 0 0 0 0 0
0.51425719 0.17691733 1.2217759 0 0 0 0 0
0.51453 0.17687361 1.2219757 0 0 0 0 0
0.51453 0.17687361 1.2219757 0 0 0 0 0
0.51454806 0.17687072 1.2219888 0 0 0 0 0
0.51454806 0.17687072 1.2219888 0 0 0 0 0
0.51446515 0.17688401 1.2219281 0 0 0 0 0
0.51446515 0.17688401 1.2219281 0 0 0 0 0
0.5143792 0.17689778 1.2218653 0 0 0 0 0
0.5143792 0.17689778 1.2218653 0 0 0 0 0
0.51401222 0.17695659 1.2215966 0 0 0 0 0
0.51401222 0.17695659 1.2215966 0 0 0 0 0
0.51437443 0.17689854 1.2218617 0 0 0 0 0
0.51437443 0.17689854 1.2218617 0 0 0 0 0
0.5145663 0.1768678 1.2220021 0 0 0 0 0
0.5145663 0.1768678 1.2220021 0 0 0 0 0
0.51473027 0.17684153 1.2221222 0 0 0 0 0
0.51473027 0.17684153 1.2221222 0 0 0 0 0
0.51468575 0.17684866 1.2220896 0 0 0 0 0
0.51468575 0.17684866 1.2220896 0 0 0 0 0
0.51492888 0.1768097 1.2222676 0 0 0 0 0
0.51492888 0.1768097 1.2222676 0 0 0 0 0
0.51493317 0.17680901 1.2222707 0 0 0 0 0
0.51493317 0.17680901 1.2222707 0 0 0 0 0
0.51522833 0.17676172 1.2224869 0 0 0 0 0
0.51522833 0.17676172 1.2224869 0 0 0 0 0
0.51534265 0.17674339 1.2225704 0 0 0 0 0
0.51534265 0.17674339 1.2225704 0 0 0 0 0
0.51527029 0.17675498 1.2225175 0 0 0 0 0
0.51527029 0.17675498 1.2225175 0 0 0 0 0
0.51559001 0.17670375 1.2227515 0 0 0 0 0
0.51559001 0.17670375 1.2227515 0 0 0 0 0
0.51598161 0.176641 1.2230382 0 0 0 0 0
0.51598161 0.176641 1.2230382 0 0 0 0 0
0.51609755 0.17662244 1.2231231 0 0 0 0 0
0.51609755 0.17662244 1.2231231 0 0 0 0 0
0.51645058 0.17656586 1.2233815 0 0 0 0 0
0.51645058 0.17656586 1.2233815 0 0 0 0 0
0.51302624 0.17711458 1.2208749 0 0 0 0 0
0.5131914 0.17708811 1.2209958 0 0 0 0 0
0.51303399 0.17711334 1.2208805 0 0 0 0 0
0.51316833 0.17709182 1.2209789 0 0 0 0 0
0.51334471 0.17706355 1.221108 0 0 0 0 0
0.5137161 0.17700404 1.2213799 0 0 0 0 0
0.51353204 0.17703353 1.2212452 0 0 0 0 0
0.51377821 0.17699409 1.2214253 0 0 0 0 0
0.51364481 0.17701545 1.2213277 0 0 0 0 0
0.51300192 0.17711848 1.2208571 0 0 0 0 0
0.51354992 0.17703067 1.2212582 0 0 0 0 0
0.51268971 0.1771685 1.2206285 0 0 0 0 0
0.51333696 0.17706479 1.2211024 0 0 0 0 0
0.51335484 0.17706193 1.2211154 0 0 0 0 0
0.51350051 0.17703858 1.221222 0 0 0 0 0
0.51276046 0.17715716 1.2206804 0 0 0 0 0
0.51316643 0.17709212 1.2209775 0 0 0 0 0
0.51326925 0.17707564 1.2210528 0 0 0 0 0
0.51373404 0.17700116 1.221393 0 0 0 0 0
0.51367891 0.17701 1.2213526 0 0 0 0 0
0.51355118 0.17703047 1.2212591 0 0 0 0 0
0.51368833 0.17700848 1.2213595 0 0 0 0 0
0.51374263 0.17699979 1.2213993 0 0 0 0 0
0.51375175 0.17699832 1.221406 0 0 0 0 0
0.51355058 0.17703056 1.2212586 0 0 0 0 0
0.51353157 0.1770336 1.2212448 0 0 0 0 0
0.51353157 0.1770336 1.2212448 0 0 0 0 0
0.51377505 0.17699459 1.221423 0 0 0 0 0
0.51377505 0.17699459 1.221423 0 0 0 0 0
0.51389581 0.17697524 1.2215114 0 0 0 0 0
0.51389581 0.17697524 1.2215114 0 0 0 0 0
