# .PCD v0.7 - Point Cloud Data file format
VERSION 0.7
FIELDS x y z rgb normal_x normal_y normal_z curvature
SIZE 4 4 4 4 4 4 4 4
TYPE F F F F F F F F
COUNT 1 1 1 1 1 1 1 1
WIDTH 861
HEIGHT 1
VIEWPOINT 0 0 0 1 0 0 0
POINTS 861
DATA ascii
0.63273031 0.079816945 0.56756055 1.7148387e-38 0 0 0 0
0.63317108 0.08074224 0.56987929 1.5581061e-38 0 0 0 0
0.63355213 0.082461424 0.5688864 1.604204e-38 0 0 0 0
0.63431144 0.085082009 0.56869841 1.9914256e-38 0 0 0 0
0.63516635 0.088563547 0.56817788 2.0098647e-38 0 0 0 0
0.63617289 0.089537606 0.56954157 2.0190843e-38 0 0 0 0
0.63664341 0.092129216 0.56822914 2.0190843e-38 0 0 0 0
0.6378727 0.093976766 0.56904864 2.1850364e-38 0 0 0 0
0.63832855 0.096576929 0.56776357 2.1850364e-38 0 0 0 0
0.63947475 0.097568765 0.5689007 2.2126951e-38 0 0 0 0
0.64043057 0.10023877 0.56839764 2.2311342e-38 0 0 0 0
0.64138925 0.10291619 0.56789333 2.2495734e-38 0 0 0 0
0.6423834 0.10303631 0.5694626 2.2126951e-38 0 0 0 0
0.64349997 0.10659432 0.56852901 2.2126951e-38 0 0 0 0
0.64446449 0.10928508 0.56802416 2.1850364e-38 0 0 0 0
0.64554775 0.10941451 0.5694508 2.3509886e-38 0 0 0 0
0.64477676 0.11104412 0.56716132 2.2772321e-38 0 0 0 0
0.64659667 0.11212364 0.56881195 2.3509886e-38 0 0 0 0
0.64881879 0.11326157 0.56980121 2.3509886e-38 0 0 0 0
0.64732379 0.11537617 0.56751919 2.2956712e-38 0 0 0 0
0.64995378 0.11599393 0.56903148 2.3509886e-38 0 0 0 0
0.67686117 0.11606716 0.5696485 2.3509886e-38 0 0 0 0
0.64961624 0.11854618 0.56746519 2.3509886e-38 0 0 0 0
0.65198672 0.11827026 0.56904924 2.3509886e-38 0 0 0 0
0.65404642 0.11910958 0.56984997 2.3509886e-38 0 0 0 0
0.67710519 0.11872838 0.56877291 2.3509886e-38 0 0 0 0
0.65243554 0.1212192 0.56774807 2.3509886e-38 0 0 0 0
0.65519381 0.12186135 0.56907743 2.3509886e-38 0 0 0 0
0.67448032 0.12099411 0.56921911 2.3509886e-38 0 0 0 0
0.67734981 0.12139561 0.56789535 2.3509886e-38 0 0 0 0
0.65560269 0.1245255 0.56790394 2.3509886e-38 0 0 0 0
0.65837431 0.12430587 0.56939805 2.3509886e-38 0 0 0 0
0.66163468 0.12533176 0.56935823 2.3509886e-38 0 0 0 0
0.66461533 0.12574254 0.56937009 2.341769e-38 0 0 0 0
0.67186499 0.12325102 0.56966388 2.3509886e-38 0 0 0 0
0.67387629 0.12470685 0.56839496 2.3509886e-38 0 0 0 0
0.6775949 0.12406765 0.56701612 2.3509886e-38 0 0 0 0
0.6566183 0.12640157 0.56751865 2.3509886e-38 0 0 0 0
0.65879774 0.12726992 0.56815052 2.3509886e-38 0 0 0 0
0.66135019 0.12820292 0.56819034 2.3509886e-38 0 0 0 0
0.66484416 0.12752345 0.56866968 2.3509886e-38 0 0 0 0
0.66772205 0.12704708 0.56903112 2.3509886e-38 0 0 0 0
0.66966414 0.12731411 0.56913316 2.3141103e-38 0 0 0 0
0.67226255 0.12769061 0.5682072 2.3509886e-38 0 0 0 0
0.67504454 0.12721904 0.56717384 2.3325494e-38 0 0 0 0
0.66132075 0.13053155 0.56725496 2.3509886e-38 0 0 0 0
0.66419047 0.13006024 0.56761396 2.3509886e-38 0 0 0 0
0.66718602 0.13048157 0.56762242 2.3509886e-38 0 0 0 0
0.67013931 0.13089521 0.56771433 2.3325494e-38 0 0 0 0
0.6725018 0.1303611 0.56733096 2.3509886e-38 0 0 0 0
0.70470029 -0.28222519 0.57077706 2.3509886e-38 0 0 0 0
0.69297981 -0.28093365 0.57019025 1.7240583e-38 0 0 0 0
0.69440222 -0.28042853 0.57258803 2.0559625e-38 0 0 0 0
0.69743395 -0.28081316 0.5725621 2.1850364e-38 0 0 0 0
0.69973695 -0.28122175 0.5721333 2.1850364e-38 0 0 0 0
0.70204824 -0.2816318 0.57170284 2.1850364e-38 0 0 0 0
0.7072717 -0.28033158 0.5726918 2.3509886e-38 0 0 0 0
0.71085042 -0.28141317 0.57043225 2.3509886e-38 0 0 0 0
0.71461117 -0.28013948 0.57063729 2.3509886e-38 0 0 0 0
0.68501484 -0.27752477 0.57290632 1.9084495e-38 0 0 0 0
0.71601796 -0.27844757 0.57128698 2.3509886e-38 0 0 0 0
0.71786541 -0.27698481 0.57129997 2.3509886e-38 0 0 0 0
0.72028458 -0.27581424 0.57049263 2.3509886e-38 0 0 0 0
0.72113597 -0.27221733 0.57165575 2.3509886e-38 0 0 0 0
0.72325999 -0.2692678 0.57098758 2.3509886e-38 0 0 0 0
0.72083086 -0.25356618 0.57175928 2.341769e-38 0 0 0 0
0.71833801 -0.2483134 0.57144862 2.194256e-38 0 0 0 0
0.62284034 0.029610155 0.57210267 1.5212279e-38 0 0 0 0
0.62366074 0.037989646 0.57217944 1.4751301e-38 0 0 0 0
0.62441081 0.039643493 0.57053834 1.4659105e-38 0 0 0 0
0.62434292 0.044734009 0.57284498 1.4751301e-38 0 0 0 0
0.62487233 0.046396848 0.57158679 1.4935692e-38 0 0 0 0
0.62540329 0.04806456 0.57032496 1.4935692e-38 0 0 0 0
0.62567204 0.052333973 0.57222861 1.5581061e-38 0 0 0 0
0.62662584 0.055740245 0.57151341 1.4290323e-38 0 0 0 0
0.62743104 0.059151396 0.5710566 1.7424974e-38 0 0 0 0
0.62826711 0.061781656 0.57233834 1.4013736e-38 0 0 0 0
0.62882674 0.064312816 0.57086253 1.7978148e-38 0 0 0 0
0.62964457 0.066944651 0.57217872 1.4105931e-38 0 0 0 0
0.63001961 0.068639152 0.57119375 1.8070343e-38 0 0 0 0
0.63039553 0.070337541 0.5702064 1.604204e-38 0 0 0 0
0.63121462 0.072974078 0.57152534 1.5857648e-38 0 0 0 0
0.63207543 0.076152086 0.57158172 1.4198127e-38 0 0 0 0
0.63279086 0.079026997 0.5708698 1.539667e-38 0 0 0 0
0.63360322 0.079984114 0.57254827 2.1020604e-38 0 0 0 0
0.63406748 0.082548134 0.57124698 2.046743e-38 0 0 0 0
0.63505399 0.084911905 0.57127219 2.0375234e-38 0 0 0 0
0.63651294 0.086220637 0.57288158 2.1850364e-38 0 0 0 0
0.63586003 0.08781451 0.5704143 2.0006452e-38 0 0 0 0
0.63734525 0.089127623 0.57198501 2.1850364e-38 0 0 0 0
0.67870879 0.088426083 0.57201695 2.341769e-38 0 0 0 0
0.63791358 0.091446273 0.57110989 2.2219147e-38 0 0 0 0
0.67790043 0.092681989 0.57245624 2.3509886e-38 0 0 0 0
0.67809427 0.090967432 0.57248151 2.3509886e-38 0 0 0 0
0.63871276 0.093236029 0.57103789 2.2034756e-38 0 0 0 0
0.63957632 0.094472468 0.5715096 2.1850364e-38 0 0 0 0
0.6777066 0.094396651 0.57243085 2.3509886e-38 0 0 0 0
0.64096332 0.09775275 0.57124734 2.1850364e-38 0 0 0 0
0.67741585 0.096968837 0.57239288 2.3509886e-38 0 0 0 0
0.64192051 0.10042086 0.57074791 2.1850364e-38 0 0 0 0
0.64291239 0.10054209 0.57231247 2.1850364e-38 0 0 0 0
0.67702806 0.10039876 0.57234216 2.3509886e-38 0 0 0 0
0.64396983 0.10322881 0.57165229 2.2680125e-38 0 0 0 0
0.64603609 0.10433583 0.57287616 2.3509886e-38 0 0 0 0
0.67664027 0.1038291 0.57229149 2.341769e-38 0 0 0 0
0.64498436 0.10591614 0.5710665 2.3509886e-38 0 0 0 0
0.64647132 0.10695592 0.5716486 2.341769e-38 0 0 0 0
0.67636967 0.10640468 0.57222188 2.3509886e-38 0 0 0 0
0.64682215 0.10957083 0.5705598 2.3509886e-38 0 0 0 0
0.64889157 0.10897143 0.57213402 2.341769e-38 0 0 0 0
0.65122783 0.11012164 0.57293642 2.3509886e-38 0 0 0 0
0.6734395 0.10951023 0.57299227 2.2680125e-38 0 0 0 0
0.67649078 0.10903268 0.57154119 2.3233299e-38 0 0 0 0
0.64962268 0.11221465 0.57084697 2.3325494e-38 0 0 0 0
0.65236521 0.11284627 0.5721724 2.3509886e-38 0 0 0 0
0.67367887 0.11215168 0.57212436 2.2772321e-38 0 0 0 0
0.67665201 0.11254274 0.57063305 2.3325494e-38 0 0 0 0
0.65276831 0.11548529 0.5710088 2.3509886e-38 0 0 0 0
0.65542614 0.11524619 0.57265693 2.3509886e-38 0 0 0 0
0.6585393 0.11622847 0.5728246 2.3509886e-38 0 0 0 0
0.66149807 0.11661956 0.57284319 2.3509886e-38 0 0 0 0
0.67115259 0.11529806 0.57227337 2.3509886e-38 0 0 0 0
0.67399883 0.11568152 0.57096463 2.2956712e-38 0 0 0 0
0.65377587 0.11734243 0.5706287 2.3509886e-38 0 0 0 0
0.6558674 0.11818615 0.57138109 2.3509886e-38 0 0 0 0
0.65827626 0.11907967 0.57162917 2.3509886e-38 0 0 0 0
0.66172326 0.11838366 0.57214922 2.3509886e-38 0 0 0 0
0.66458112 0.11789591 0.57251406 2.3509886e-38 0 0 0 0
0.66761303 0.11829925 0.57245511 2.3509886e-38 0 0 0 0
0.67146873 0.11882691 0.57111549 2.3233299e-38 0 0 0 0
0.67423928 0.11833484 0.57009286 2.3509886e-38 0 0 0 0
0.65827519 0.12139311 0.57065183 2.3509886e-38 0 0 0 0
0.66169375 0.12069577 0.5712204 2.3509886e-38 0 0 0 0
0.66441363 0.12164308 0.57100177 2.3509886e-38 0 0 0 0
0.66764611 0.12149793 0.571266 2.3509886e-38 0 0 0 0
0.67044073 0.12217483 0.57049143 2.3509886e-38 0 0 0 0
0.65943062 0.12328707 0.5700475 2.3509886e-38 0 0 0 0
0.66140902 0.1235575 0.57005626 2.3509886e-38 0 0 0 0
0.66438681 0.12396452 0.57006943 2.3509886e-38 0 0 0 0
0.66734785 0.12436855 0.57012564 2.3509886e-38 0 0 0 0
0.66935748 0.12464351 0.57011729 2.3509886e-38 0 0 0 0
0.70391631 -0.27936444 0.57464433 2.3509886e-38 0 0 0 0
0.68542451 -0.27689362 0.57531267 1.7240583e-38 0 0 0 0
0.70709866 -0.27780858 0.5756433 2.3509886e-38 0 0 0 0
0.71068966 -0.27888903 0.57336992 2.3509886e-38 0 0 0 0
0.7114526 -0.27686623 0.57494658 2.3509886e-38 0 0 0 0
0.71328396 -0.27540952 0.57496428 2.3509886e-38 0 0 0 0
0.71551573 -0.27415621 0.57440734 2.3509886e-38 0 0 0 0
0.6709038 -0.2701456 0.57557142 1.1985432e-38 0 0 0 0
0.71766514 -0.27285075 0.57398009 2.3509886e-38 0 0 0 0
0.71860564 -0.26851743 0.57485414 2.3509886e-38 0 0 0 0
0.72084713 -0.26563698 0.57400686 2.3509886e-38 0 0 0 0
0.71938163 -0.26249546 0.57566452 2.3509886e-38 0 0 0 0
0.71914649 -0.25435784 0.57449329 2.341769e-38 0 0 0 0
0.71046501 -0.24129982 0.57599002 1.9176691e-38 0 0 0 0
0.62135351 0.026356729 0.57536256 1.456691e-38 0 0 0 0
0.62209553 0.027980363 0.57373565 1.4843496e-38 0 0 0 0
0.62232965 0.034700342 0.57516634 1.2354214e-38 0 0 0 0
0.62291348 0.036342073 0.57381415 1.2169823e-38 0 0 0 0
0.62328869 0.041422822 0.57535028 1.4935692e-38 0 0 0 0
0.62381506 0.043076005 0.57409942 1.456691e-38 0 0 0 0
0.62439579 0.046513673 0.57562995 1.4105931e-38 0 0 0 0
0.62494153 0.049002722 0.57417548 1.456691e-38 0 0 0 0
0.62596166 0.052455768 0.57495677 1.68718e-38 0 0 0 0
0.62651104 0.054959055 0.57349861 1.6503018e-38 0 0 0 0
0.6271534 0.056746133 0.57527524 1.5212279e-38 0 0 0 0
0.62752378 0.058420822 0.57429856 1.3460562e-38 0 0 0 0
0.62820977 0.060991783 0.57422 1.392154e-38 0 0 0 0
0.62923121 0.06472367 0.57441545 1.4751301e-38 0 0 0 0
0.62989974 0.067037225 0.57496506 1.4382518e-38 0 0 0 0
0.63027436 0.068728499 0.5739851 1.7332778e-38 0 0 0 0
0.63085371 0.070471771 0.57426506 1.834693e-38 0 0 0 0
0.63185251 0.073382288 0.57468057 2.0651821e-38 0 0 0 0
0.63283235 0.07572674 0.574709 2.0744017e-38 0 0 0 0
0.63358545 0.077489138 0.57470071 2.1481582e-38 0 0 0 0
0.63447702 0.08010529 0.57429075 2.2587929e-38 0 0 0 0
0.63548368 0.082183301 0.57433802 2.2219147e-38 0 0 0 0
0.6373508 0.085491732 0.57485789 2.2311342e-38 0 0 0 0
0.63829756 0.088128954 0.57436544 2.2219147e-38 0 0 0 0
0.63909501 0.089911848 0.57429594 2.2034756e-38 0 0 0 0
0.63995665 0.091144189 0.57476729 2.2403538e-38 0 0 0 0
0.64116281 0.094107285 0.57432866 2.2772321e-38 0 0 0 0
0.64268959 0.095423162 0.57530183 2.3509886e-38 0 0 0 0
0.64348412 0.097893409 0.57447153 2.3509886e-38 0 0 0 0
0.64414299 0.10069299 0.57347912 2.3509886e-38 0 0 0 0
0.64611411 0.10008465 0.5751915 2.3509886e-38 0 0 0 0
0.64843631 0.10122047 0.57599312 2.3509886e-38 0 0 0 0
0.67264503 0.10074461 0.57587236 2.3509886e-38 0 0 0 0
0.64683712 0.1032971 0.5739159 2.341769e-38 0 0 0 0
0.64936417 0.10417841 0.5749774 2.341769e-38 0 0 0 0
0.6728828 0.10336842 0.5750103 2.3141103e-38 0 0 0 0
0.64996141 0.10653263 0.57408351 2.3509886e-38 0 0 0 0
0.65293068 0.10690163 0.57561433 2.3509886e-38 0 0 0 0
0.67036617 0.10651721 0.57515448 2.3509886e-38 0 0 0 0
0.67320061 0.10687466 0.57385826 2.3325494e-38 0 0 0 0
0.65096104 0.10837109 0.57370865 2.3509886e-38 0 0 0 0
0.65302771 0.10920145 0.57448006 2.3509886e-38 0 0 0 0
0.65527308 0.11005725 0.57496965 2.3509886e-38 0 0 0 0
0.6583817 0.10988168 0.57535994 2.3509886e-38 0 0 0 0
0.66158545 0.10971714 0.5756157 2.3509886e-38 0 0 0 0
0.6644789 0.11008595 0.57574958 2.3233299e-38 0 0 0 0
0.66785687 0.10965674 0.57529831 2.3233299e-38 0 0 0 0
0.67068011 0.1100225 0.57400441 2.2680125e-38 0 0 0 0
0.6552999 0.11235487 0.57395071 2.3509886e-38 0 0 0 0
0.65896773 0.11196674 0.57455862 2.3325494e-38 0 0 0 0
0.66130269 0.11255696 0.57446039 2.3509886e-38 0 0 0 0
0.66485077 0.11272793 0.57466364 2.341769e-38 0 0 0 0
0.66808939 0.11228383 0.57443744 2.2680125e-38 0 0 0 0
0.67091608 0.11265733 0.57313991 2.2403538e-38 0 0 0 0
0.65635329 0.1142135 0.57350308 2.3509886e-38 0 0 0 0
0.65831727 0.11447089 0.57351619 2.3509886e-38 0 0 0 0
0.66127336 0.1148583 0.57353592 2.3509886e-38 0 0 0 0
0.66423953 0.11524703 0.57355583 2.3509886e-38 0 0 0 0
0.66762441 0.11511373 0.57357061 2.3233299e-38 0 0 0 0
0.68544656 -0.27605012 0.57830012 1.7240583e-38 0 0 0 0
0.69758928 -0.27762142 0.57804191 2.3509886e-38 0 0 0 0
0.70042008 -0.27831465 0.57682765 2.3509886e-38 0 0 0 0
0.70355612 -0.27674749 0.57786894 2.3509886e-38 0 0 0 0
0.6783374 -0.27396473 0.57679826 1.2077628e-38 0 0 0 0
0.70749211 -0.27559787 0.57775277 2.3509886e-38 0 0 0 0
0.70875299 -0.27385157 0.57858819 2.3509886e-38 0 0 0 0
0.67409718 -0.27176321 0.57698786 1.4105931e-38 0 0 0 0
0.71062809 -0.27242607 0.57853031 2.3509886e-38 0 0 0 0
0.71321583 -0.27136502 0.57744467 2.3509886e-38 0 0 0 0
0.71393573 -0.26773825 0.57877594 2.3509886e-38 0 0 0 0
0.71522886 -0.26999474 0.57720488 2.3509886e-38 0 0 0 0
0.71609181 -0.26484185 0.5780316 2.3509886e-38 0 0 0 0
0.7186864 -0.25974652 0.57621396 2.3509886e-38 0 0 0 0
0.71810186 -0.25625357 0.57645339 2.3509886e-38 0 0 0 0
0.7150135 -0.24832883 0.57657236 2.341769e-38 0 0 0 0
0.71091402 -0.24394304 0.57893461 2.194256e-38 0 0 0 0
0.61906886 0.014838197 0.57851458 1.2999584e-38 0 0 0 0
0.61980295 0.016432131 0.57690161 1.1708845e-38 0 0 0 0
0.61987782 0.023127804 0.57859796 1.4105931e-38 0 0 0 0
0.62061429 0.024739223 0.57698333 1.4382518e-38 0 0 0 0
0.62076557 0.029803775 0.57889408 1.2354214e-38 0 0 0 0
0.62128544 0.031431235 0.57765508 1.3829344e-38 0 0 0 0
0.6218068 0.033063423 0.5764125 1.5765453e-38 0 0 0 0
0.62211674 0.037311655 0.57822597 1.4474714e-38 0 0 0 0
0.62303782 0.040668055 0.57755911 1.5581061e-38 0 0 0 0
0.62367111 0.043208621 0.5775615 1.392154e-38 0 0 0 0
0.62403303 0.044859286 0.5765968 1.3829344e-38 0 0 0 0
0.62468618 0.046646025 0.57834196 1.3460562e-38 0 0 0 0
0.62523198 0.049130578 0.57689381 1.3829344e-38 0 0 0 0
0.62623119 0.052576464 0.57770717 1.6503018e-38 0 0 0 0
0.62678379 0.055075239 0.5762499 1.751717e-38 0 0 0 0
0.62741214 0.056858245 0.57804209 1.4474714e-38 0 0 0 0
0.62778211 0.058529776 0.57707036 1.3460562e-38 0 0 0 0
0.62844795 0.060834005 0.57761687 1.5212279e-38 0 0 0 0
0.62949765 0.063727453 0.57793438 1.6687409e-38 0 0 0 0
0.63014513 0.065466464 0.57809728 2.046743e-38 0 0 0 0
0.63102776 0.068053998 0.57769221 2.1573777e-38 0 0 0 0
0.67461401 0.068252563 0.57897907 2.3509886e-38 0 0 0 0
0.63237977 0.070712432 0.57809806 2.194256e-38 0 0 0 0
0.63221854 0.07233651 0.57642955 2.1758169e-38 0 0 0 0
0.63366723 0.073638901 0.57802832 2.2403538e-38 0 0 0 0
0.63448966 0.076507464 0.57714552 2.2126951e-38 0 0 0 0
0.63600069 0.07781525 0.57864457 2.2680125e-38 0 0 0 0
0.6353144 0.079384118 0.57626021 2.2772321e-38 0 0 0 0
0.63629973 0.079515249 0.57780594 2.2772321e-38 0 0 0 0
0.63724208 0.082136817 0.57731843 2.2219147e-38 0 0 0 0
0.63818675 0.084763914 0.57683051 2.2219147e-38 0 0 0 0
0.63978779 0.086084507 0.5781939 2.2956712e-38 0 0 0 0
0.64037406 0.088393211 0.5773012 2.2864516e-38 0 0 0 0
0.64225328 0.088624015 0.57896537 2.3509886e-38 0 0 0 0
0.64138222 0.09104155 0.5767169 2.3509886e-38 0 0 0 0
0.64336348 0.091283172 0.57821959 2.3509886e-38 0 0 0 0
0.67206985 0.091199547 0.5785619 2.3509886e-38 0 0 0 0
0.6440801 0.094465509 0.5769521 2.3509886e-38 0 0 0 0
0.64606154 0.094987959 0.57787853 2.3509886e-38 0 0 0 0
0.66935152 0.095189154 0.57887137 2.3509886e-38 0 0 0 0
0.67222464 0.094657868 0.57766992 2.3509886e-38 0 0 0 0
0.64733732 0.097119913 0.57751453 2.3509886e-38 0 0 0 0
0.64937073 0.097933397 0.57831299 2.3509886e-38 0 0 0 0
0.66958487 0.097794831 0.57801652 2.3509886e-38 0 0 0 0
0.67241383 0.098127306 0.57672298 2.3509886e-38 0 0 0 0
0.64923567 0.10018393 0.5770306 2.3509886e-38 0 0 0 0
0.65202355 0.10080957 0.57825327 2.3509886e-38 0 0 0 0
0.65460521 0.10027316 0.57898849 2.3509886e-38 0 0 0 0
0.66452491 0.10148444 0.57889366 2.3509886e-38 0 0 0 0
0.66708517 0.1009367 0.57815564 2.3325494e-38 0 0 0 0
0.6698187 0.10040515 0.57716 2.3509886e-38 0 0 0 0
0.65016377 0.10313825 0.57601696 2.3509886e-38 0 0 0 0
0.65240896 0.10341531 0.57712871 2.3509886e-38 0 0 0 0
0.65590733 0.10299461 0.5779745 2.3509886e-38 0 0 0 0
0.65884024 0.10335767 0.57800269 2.3509886e-38 0 0 0 0
0.66174734 0.10371745 0.57809198 2.3509886e-38 0 0 0 0
0.66479033 0.10409428 0.57798171 2.3509886e-38 0 0 0 0
0.66731608 0.10354633 0.57730049 2.3509886e-38 0 0 0 0
0.67005301 0.10302128 0.57630157 2.3048907e-38 0 0 0 0
0.65266955 0.10515694 0.57637215 2.3509886e-38 0 0 0 0
0.65536726 0.1063505 0.57659709 2.3509886e-38 0 0 0 0
0.65830326 0.10672048 0.57662272 2.3509886e-38 0 0 0 0
0.66124928 0.10709174 0.57664835 2.3509886e-38 0 0 0 0
0.66404605 0.10658221 0.57709551 2.3509886e-38 0 0 0 0
0.66754758 0.10616176 0.57644355 2.3233299e-38 0 0 0 0
0.66424966 0.10833102 0.57644308 2.3509886e-38 0 0 0 0
0.69124705 -0.27627143 0.5800451 2.1850364e-38 0 0 0 0
0.69480938 -0.27695143 0.57919621 2.3509886e-38 0 0 0 0
0.68637896 -0.27571389 0.57989299 1.9268887e-38 0 0 0 0
0.68785518 -0.27567875 0.58066005 2.1850364e-38 0 0 0 0
0.69678211 -0.27477401 0.58192796 2.3509886e-38 0 0 0 0
0.70004088 -0.27569458 0.58007741 2.3509886e-38 0 0 0 0
0.70363927 -0.2743794 0.58042794 2.3509886e-38 0 0 0 0
0.67741942 -0.27260053 0.58123678 1.9084495e-38 0 0 0 0
0.70952106 -0.26906115 0.58117872 2.3509886e-38 0 0 0 0
0.71234632 -0.26533613 0.58077753 2.3509886e-38 0 0 0 0
0.71442699 -0.26240751 0.580136 2.3509886e-38 0 0 0 0
0.7130177 -0.26010928 0.5818724 2.3509886e-38 0 0 0 0
0.71318215 -0.24904616 0.57952869 2.341769e-38 0 0 0 0
0.61760902 0.011668243 0.58172226 1.2538606e-38 0 0 0 0
0.61833757 0.013250246 0.58012146 1.2815193e-38 0 0 0 0
0.61878294 0.019911163 0.58117265 1.3737149e-38 0 0 0 0
0.61929786 0.021517979 0.57994187 1.4198127e-38 0 0 0 0
0.61973089 0.02656292 0.5813604 1.1985432e-38 0 0 0 0
0.62024724 0.028181015 0.58012944 1.2262019e-38 0 0 0 0
0.62086481 0.031597681 0.58157617 1.5673257e-38 0 0 0 0
0.62140024 0.034041308 0.58014339 1.5765453e-38 0 0 0 0
0.62241077 0.037460856 0.58092046 1.4290323e-38 0 0 0 0
0.62327164 0.040810626 0.58035946 1.751717e-38 0 0 0 0
0.62395704 0.043346867 0.58027244 1.4382518e-38 0 0 0 0
0.62432122 0.044994585 0.57930827 1.3460562e-38 0 0 0 0
0.62494856 0.046777297 0.58108944 1.5212279e-38 0 0 0 0
0.62564492 0.049574807 0.58039761 1.5581061e-38 0 0 0 0
0.62649107 0.052696407 0.58046138 1.4382518e-38 0 0 0 0
0.62743801 0.05582587 0.58035499 1.8531322e-38 0 0 0 0
0.62851107 0.058707871 0.58062708 2.046743e-38 0 0 0 0
0.62938893 0.061278708 0.5802272 2.0375234e-38 0 0 0 0
0.63040119 0.062247235 0.58153427 2.2126951e-38 0 0 0 0
0.63121939 0.065083295 0.58065271 2.1389386e-38 0 0 0 0
0.63225877 0.067411713 0.58057564 2.2495734e-38 0 0 0 0
0.63255262 0.069093406 0.57974297 2.2034756e-38 0 0 0 0
0.63405812 0.070397049 0.58123589 2.1850364e-38 0 0 0 0
0.67378044 0.07076598 0.57978809 2.3509886e-38 0 0 0 0
0.63487911 0.07325381 0.58035976 2.2219147e-38 0 0 0 0
0.63638639 0.074558526 0.58185494 2.1850364e-38 0 0 0 0
0.67322385 0.074148804 0.5800063 2.3233299e-38 0 0 0 0
0.63570237 0.076118588 0.57948142 2.2219147e-38 0 0 0 0
0.63683456 0.077099063 0.5806042 2.1850364e-38 0 0 0 0
0.67293572 0.076694153 0.57996905 2.3509886e-38 0 0 0 0
0.63792253 0.07917425 0.58051866 2.2956712e-38 0 0 0 0
0.63960087 0.079937756 0.58185303 2.3509886e-38 0 0 0 0
0.67264771 0.079239756 0.5799318 2.3509886e-38 0 0 0 0
0.63878465 0.08233729 0.57952881 2.3509886e-38 0 0 0 0
0.6406855 0.082569972 0.58114195 2.3509886e-38 0 0 0 0
0.6722635 0.082634225 0.57988203 2.3509886e-38 0 0 0 0
0.64138693 0.085721932 0.5798974 2.3509886e-38 0 0 0 0
0.64318961 0.085378617 0.5812642 2.3509886e-38 0 0 0 0
0.66857702 0.086541928 0.58170873 2.341769e-38 0 0 0 0
0.67192566 0.086033382 0.57976019 2.341769e-38 0 0 0 0
0.64401484 0.087714851 0.58051813 2.3509886e-38 0 0 0 0
0.64587963 0.089058921 0.58093131 2.3509886e-38 0 0 0 0
0.66790247 0.089315794 0.58118689 2.3509886e-38 0 0 0 0
0.67195338 0.088610247 0.57923055 2.3509886e-38 0 0 0 0
0.64626902 0.091633484 0.57979393 2.3509886e-38 0 0 0 0
0.64900345 0.092244282 0.58107495 2.3509886e-38 0 0 0 0
0.66364437 0.092825979 0.58191907 2.3509886e-38 0 0 0 0
0.66624206 0.091411099 0.58127683 2.3509886e-38 0 0 0 0
0.66904116 0.091723368 0.58000857 2.3509886e-38 0 0 0 0
0.64738739 0.094302356 0.57904792 2.3509886e-38 0 0 0 0
0.64960164 0.094570428 0.58018589 2.3509886e-38 0 0 0 0
0.6528784 0.094115719 0.58135486 2.3509886e-38 0 0 0 0
0.65579021 0.094460025 0.58138937 2.3509886e-38 0 0 0 0
0.65867454 0.094801396 0.58148742 2.3509886e-38 0 0 0 0
0.66144139 0.094276696 0.58195043 2.3509886e-38 0 0 0 0
0.66381997 0.09455277 0.5813157 2.3509886e-38 0 0 0 0
0.66647148 0.094002306 0.58042771 2.3509886e-38 0 0 0 0
0.66919625 0.093455106 0.57944036 2.3509886e-38 0 0 0 0
0.6501928 0.096902296 0.57930893 2.3509886e-38 0 0 0 0
0.65233833 0.097445562 0.57998788 2.3509886e-38 0 0 0 0
0.65525317 0.097796679 0.58001977 2.3509886e-38 0 0 0 0
0.65902495 0.097397819 0.58043599 2.3509886e-38 0 0 0 0
0.66178149 0.096875191 0.58092058 2.3509886e-38 0 0 0 0
0.66408384 0.097147852 0.58040899 2.3509886e-38 0 0 0 0
0.66677785 0.097464904 0.57929319 2.3509886e-38 0 0 0 0
0.65655446 0.10051121 0.57900852 2.3509886e-38 0 0 0 0
0.65839833 0.099882439 0.57936984 2.3509886e-38 0 0 0 0
0.66129637 0.10023482 0.57946706 2.3509886e-38 0 0 0 0
0.6643483 0.099747837 0.5795005 2.3509886e-38 0 0 0 0
0.69337535 -0.2737672 0.58402002 2.3509886e-38 0 0 0 0
0.69988483 -0.2732062 0.58298427 2.3509886e-38 0 0 0 0
0.67803407 -0.27209362 0.58330059 1.7240583e-38 0 0 0 0
0.7005074 -0.27114198 0.58473396 2.3509886e-38 0 0 0 0
0.70432705 -0.27234009 0.58209109 2.3509886e-38 0 0 0 0
0.70607626 -0.27086246 0.58219886 2.3509886e-38 0 0 0 0
0.70610642 -0.26690915 0.5845179 2.3509886e-38 0 0 0 0
0.70813614 -0.26556924 0.58422309 2.3509886e-38 0 0 0 0
0.71069813 -0.26291156 0.58286572 2.3509886e-38 0 0 0 0
0.70905793 -0.26049876 0.58494383 2.3509886e-38 0 0 0 0
0.71204358 -0.25803468 0.58298087 2.3509886e-38 0 0 0 0
0.71158761 -0.25622144 0.58334059 2.3509886e-38 0 0 0 0
0.710823 -0.25267124 0.58384752 2.3509886e-38 0 0 0 0
0.71113199 -0.2544097 0.5837 2.3509886e-38 0 0 0 0
0.71133941 -0.25054133 0.58264959 2.341769e-38 0 0 0 0
0.7074762 -0.2438931 0.58423978 2.341769e-38 0 0 0 0
0.61572278 0.0010969354 0.5840224 1.4751301e-38 0 0 0 0
0.61630702 0.0085137887 0.58465284 1.2907388e-38 0 0 0 0
0.61688322 0.010092156 0.58331716 1.2354214e-38 0 0 0 0
0.61750221 0.015914865 0.58423388 1.3183975e-38 0 0 0 0
0.61826944 0.018308967 0.58239996 1.2077628e-38 0 0 0 0
0.61861926 0.022533791 0.58412576 1.4290323e-38 0 0 0 0
0.61950874 0.025842641 0.58350569 1.2999584e-38 0 0 0 0
0.62033141 0.029163137 0.58300352 1.539667e-38 0 0 0 0
0.62116003 0.031757064 0.58425385 1.8070343e-38 0 0 0 0
0.62169492 0.03419634 0.58282828 1.751717e-38 0 0 0 0
0.62268901 0.037609443 0.58362973 1.4659105e-38 0 0 0 0
0.62352788 0.040703949 0.58369446 1.5212279e-38 0 0 0 0
0.62422019 0.043484259 0.58301002 1.5212279e-38 0 0 0 0
0.62488258 0.045766622 0.58354855 1.8254735e-38 0 0 0 0
0.62615347 0.049199384 0.58389086 2.0190843e-38 0 0 0 0
0.62688881 0.051997613 0.5831399 2.0928408e-38 0 0 0 0
0.62765408 0.05319415 0.58373588 2.0006452e-38 0 0 0 0
0.62878883 0.055519372 0.58401442 2.1481582e-38 0 0 0 0
0.62932897 0.057757102 0.58318323 2.2034756e-38 0 0 0 0
0.6307978 0.059052128 0.58471471 2.2034756e-38 0 0 0 0
0.63123465 0.061551668 0.58347702 2.2126951e-38 0 0 0 0
0.63242328 0.06470833 0.58298028 2.2219147e-38 0 0 0 0
0.63379425 0.067080311 0.58340663 2.1850364e-38 0 0 0 0
0.63528818 0.070017681 0.58352244 2.2956712e-38 0 0 0 0
0.6370272 0.071335621 0.58462435 2.3509886e-38 0 0 0 0
0.63765395 0.073725067 0.58375007 2.3141103e-38 0 0 0 0
0.6378358 0.076396808 0.58228004 2.3509886e-38 0 0 0 0
0.63991749 0.076095983 0.58421659 2.3509886e-38 0 0 0 0
0.66788024 0.077107474 0.58457518 2.3509886e-38 0 0 0 0
0.64034522 0.078916885 0.58295608 2.3509886e-38 0 0 0 0
0.64281929 0.079763696 0.58403522 2.3509886e-38 0 0 0 0
0.66799194 0.079667807 0.5839169 2.3509886e-38 0 0 0 0
0.6435287 0.082908109 0.58278775 2.3509886e-38 0 0 0 0
0.64556944 0.082313359 0.58434212 2.3509886e-38 0 0 0 0
0.66540527 0.081955247 0.58437514 2.3509886e-38 0 0 0 0
0.66819173 0.082240067 0.58312023 2.3509886e-38 0 0 0 0
0.64463753 0.085551053 0.58204991 2.3509886e-38 0 0 0 0
0.64669502 0.084957689 0.5835849 2.3509886e-38 0 0 0 0
0.64964104 0.085581705 0.58451051 2.3509886e-38 0 0 0 0
0.65287918 0.086509295 0.58440453 2.3509886e-38 0 0 0 0
0.65578377 0.08683832 0.58444464 2.3509886e-38 0 0 0 0
0.66285843 0.084236443 0.58478397 2.3509886e-38 0 0 0 0
0.66480869 0.085573614 0.58357525 2.3233299e-38 0 0 0 0
0.66842276 0.084819362 0.58227384 2.3509886e-38 0 0 0 0
0.6470747 0.087520331 0.58246964 2.3509886e-38 0 0 0 0
0.64900911 0.088871956 0.58277845 2.3509886e-38 0 0 0 0
0.65223497 0.088966019 0.58338141 2.3509886e-38 0 0 0 0
0.65600097 0.088552773 0.58377022 2.3509886e-38 0 0 0 0
0.65871465 0.088018358 0.58429539 2.3509886e-38 0 0 0 0
0.6607486 0.088248461 0.58418918 2.341769e-38 0 0 0 0
0.6641345 0.08833655 0.58305645 2.3509886e-38 0 0 0 0
0.64985853 0.091220632 0.58200914 2.3509886e-38 0 0 0 0
0.6525563 0.091537476 0.58236945 2.3509886e-38 0 0 0 0
0.65535545 0.091017105 0.58274394 2.3509886e-38 0 0 0 0
0.65823084 0.091351286 0.58284992 2.3509886e-38 0 0 0 0
0.66111183 0.091686144 0.58296216 2.3509886e-38 0 0 0 0
0.66346902 0.091101632 0.58252156 2.3509886e-38 0 0 0 0
0.6906147 -0.27310592 0.58516735 2.3509886e-38 0 0 0 0
0.67866498 -0.27117598 0.5868274 1.9268887e-38 0 0 0 0
0.68294126 -0.2714293 0.58778393 2.1850364e-38 0 0 0 0
0.68517238 -0.27181321 0.58739036 2.1850364e-38 0 0 0 0
0.68787956 -0.27245414 0.58629209 2.3509886e-38 0 0 0 0
0.69295114 -0.27114806 0.58731902 2.3509886e-38 0 0 0 0
0.69640464 -0.2721732 0.58515996 2.3509886e-38 0 0 0 0
0.66965914 -0.26844069 0.58690232 1.2077628e-38 0 0 0 0
0.69672114 -0.26995435 0.58735365 2.3509886e-38 0 0 0 0
0.70162827 -0.26934433 0.58574837 2.3509886e-38 0 0 0 0
0.70356137 -0.26797143 0.58557522 2.3509886e-38 0 0 0 0
0.66567391 -0.266381 0.58678663 1.4105931e-38 0 0 0 0
0.70382822 -0.26415831 0.58754027 2.3509886e-38 0 0 0 0
0.66087329 -0.26386604 0.58798504 1.4105931e-38 0 0 0 0
0.70662522 -0.26321757 0.58611983 2.3509886e-38 0 0 0 0
0.70639431 -0.25954872 0.58733404 2.3509886e-38 0 0 0 0
0.70568925 -0.24461828 0.58713984 2.341769e-38 0 0 0 0
0.70363659 -0.23965895 0.58627278 2.194256e-38 0 0 0 0
0.70152575 -0.23625605 0.58579534 1.9176691e-38 0 0 0 0
0.61313748 -0.010917371 0.58787984 1.2169823e-38 0 0 0 0
0.61428654 -0.0019976874 0.58718514 1.3552758e-38 0 0 0 0
0.61529404 0.0053635556 0.58708102 1.6318626e-38 0 0 0 0
0.61579978 0.0069364156 0.5858686 1.4843496e-38 0 0 0 0
0.61623162 0.011945933 0.58727163 1.1708845e-38 0 0 0 0
0.61673784 0.013529913 0.5860607 1.1708845e-38 0 0 0 0
0.61739111 0.016923469 0.58742577 1.456691e-38 0 0 0 0
0.61774105 0.018521842 0.58648556 1.3644953e-38 0 0 0 0
0.61809164 0.020123767 0.58554339 1.4105931e-38 0 0 0 0
0.61891747 0.022709494 0.58678728 1.6687409e-38 0 0 0 0
0.61976898 0.026013158 0.58623475 1.4474714e-38 0 0 0 0
0.62044829 0.028517988 0.58614928 1.6134235e-38 0 0 0 0
0.62080455 0.030135704 0.58520132 1.8254735e-38 0 0 0 0
0.62125182 0.031106841 0.58743489 1.5673257e-38 0 0 0 0
0.62211716 0.034672618 0.58628237 1.5581061e-38 0 0 0 0
0.62295359 0.037757419 0.58635008 1.5488866e-38 0 0 0 0
0.62397158 0.040350799 0.58727795 2.1112799e-38 0 0 0 0
0.62426513 0.041984938 0.58644325 2.0190843e-38 0 0 0 0
0.62498301 0.043695055 0.58647066 2.046743e-38 0 0 0 0
0.62618184 0.046550095 0.58651727 2.1020604e-38 0 0 0 0
0.6276533 0.049984276 0.58652282 2.1112799e-38 0 0 0 0
0.66976011 0.050961688 0.58662748 2.3509886e-38 0 0 0 0
0.62908554 0.052878093 0.58671165 2.2311342e-38 0 0 0 0
0.669204 0.052631374 0.58717054 2.3509886e-38 0 0 0 0
0.62992811 0.054075163 0.58717889 2.2126951e-38 0 0 0 0
0.630705 0.055801831 0.58711922 2.1850364e-38 0 0 0 0
0.66873538 0.055144738 0.58741832 2.3509886e-38 0 0 0 0
0.63162887 0.058361489 0.58664948 2.2126951e-38 0 0 0 0
0.66835487 0.058503702 0.58736956 2.341769e-38 0 0 0 0
0.63206643 0.06085714 0.58541614 2.1850364e-38 0 0 0 0
0.63361853 0.062157087 0.58681005 2.2587929e-38 0 0 0 0
0.66797435 0.061863042 0.58732074 2.3233299e-38 0 0 0 0
0.63477594 0.064481407 0.58654058 2.2956712e-38 0 0 0 0
0.66768891 0.064382792 0.58728415 2.3509886e-38 0 0 0 0
0.63514107 0.066988505 0.58543354 2.3509886e-38 0 0 0 0
0.63700807 0.067217737 0.58706355 2.3509886e-38 0 0 0 0
0.63921618 0.068297461 0.58796835 2.3509886e-38 0 0 0 0
0.66748452 0.066907525 0.58712137 2.341769e-38 0 0 0 0
0.63769162 0.070317902 0.58584917 2.3325494e-38 0 0 0 0
0.640113 0.07115072 0.58698976 2.341769e-38 0 0 0 0
0.66758227 0.070298627 0.58632702 2.3509886e-38 0 0 0 0
0.64068818 0.073422395 0.58612645 2.341769e-38 0 0 0 0
0.64284527 0.073673002 0.5873003 2.3509886e-38 0 0 0 0
0.66464972 0.07341814 0.58717245 2.3509886e-38 0 0 0 0
0.66773152 0.073699564 0.58545136 2.3141103e-38 0 0 0 0
0.64178705 0.076038092 0.58539712 2.3509886e-38 0 0 0 0
0.64394826 0.076290533 0.58657247 2.3509886e-38 0 0 0 0
0.64679432 0.076894045 0.58763045 2.3509886e-38 0 0 0 0
0.6498906 0.077787936 0.58772415 2.3509886e-38 0 0 0 0
0.65181148 0.07799501 0.58775491 2.3509886e-38 0 0 0 0
0.66218698 0.076557696 0.58729672 2.3509886e-38 0 0 0 0
0.66495132 0.07682623 0.58605576 2.3509886e-38 0 0 0 0
0.64361066 0.078745633 0.58505809 2.3509886e-38 0 0 0 0
0.64593863 0.079851732 0.58580685 2.3509886e-38 0 0 0 0
0.648893 0.079909094 0.58681458 2.3509886e-38 0 0 0 0
0.65323782 0.07926584 0.58732986 2.3509886e-38 0 0 0 0
0.65567982 0.079253942 0.58763498 2.3509886e-38 0 0 0 0
0.65916288 0.079905562 0.58723211 2.3509886e-38 0 0 0 0
0.66248488 0.07996498 0.58618176 2.3509886e-38 0 0 0 0
0.665178 0.079387918 0.5852164 2.3509886e-38 0 0 0 0
0.64706314 0.082488641 0.58505291 2.3509886e-38 0 0 0 0
0.64981765 0.082243882 0.58592701 2.3509886e-38 0 0 0 0
0.65234435 0.082244083 0.58608288 2.3509886e-38 0 0 0 0
0.65520108 0.082560807 0.58619148 2.3509886e-38 0 0 0 0
0.65804619 0.082876705 0.58633351 2.341769e-38 0 0 0 0
0.66105711 0.082917176 0.58576959 2.341769e-38 0 0 0 0
0.65073693 0.084584765 0.58504921 2.3509886e-38 0 0 0 0
0.65266502 0.084801055 0.58507669 2.3509886e-38 0 0 0 0
0.65555549 0.085125543 0.58513606 2.3509886e-38 0 0 0 0
0.65837997 0.085444108 0.58531576 2.341769e-38 0 0 0 0
0.6604895 0.085677579 0.585087 2.341769e-38 0 0 0 0
0.68071789 -0.2710467 0.58817619 2.1850364e-38 0 0 0 0
0.68971652 -0.27023485 0.58917415 2.3509886e-38 0 0 0 0
0.66998821 -0.26778278 0.58938712 1.9084495e-38 0 0 0 0
0.69296795 -0.2687771 0.58995044 2.3509886e-38 0 0 0 0
0.69740701 -0.26793709 0.58899659 2.3509886e-38 0 0 0 0
0.7001729 -0.2658239 0.58891046 2.3509886e-38 0 0 0 0
0.70133185 -0.26130655 0.59088308 2.3509886e-38 0 0 0 0
0.70376277 -0.25861627 0.58968538 2.3509886e-38 0 0 0 0
0.70603549 -0.25582549 0.5887301 2.3509886e-38 0 0 0 0
0.70484829 -0.25366071 0.59015483 2.3509886e-38 0 0 0 0
0.70417571 -0.25097072 0.59068447 2.3509886e-38 0 0 0 0
0.70395017 -0.2477158 0.59041578 2.3509886e-38 0 0 0 0
0.70431674 -0.2455333 0.58943522 2.3509886e-38 0 0 0 0
0.612427 -0.012436379 0.5894478 1.1708845e-38 0 0 0 0
0.61310649 -0.005090104 0.58990109 1.1801041e-38 0 0 0 0
0.61403608 0.0014515251 0.59009624 1.3829344e-38 0 0 0 0
0.61478972 0.0037951707 0.5882898 1.6963996e-38 0 0 0 0
0.61517835 0.0079944562 0.58993018 1.5488866e-38 0 0 0 0
0.61572772 0.010366427 0.58847755 1.1708845e-38 0 0 0 0
0.61651981 0.01294343 0.58976698 1.3644953e-38 0 0 0 0
0.61736619 0.016218802 0.58921742 1.539667e-38 0 0 0 0
0.61836809 0.019830551 0.58939993 1.456691e-38 0 0 0 0
0.61920428 0.022884814 0.58945644 1.8070343e-38 0 0 0 0
0.61987042 0.025378758 0.58938956 1.5212279e-38 0 0 0 0
0.62053812 0.027877295 0.58932459 1.3829344e-38 0 0 0 0
0.6215378 0.031266481 0.5901022 1.6687409e-38 0 0 0 0
0.62265104 0.0343358 0.5896976 1.7793757e-38 0 0 0 0
0.62353253 0.037906017 0.58852667 2.129719e-38 0 0 0 0
0.62437814 0.038055427 0.59024596 2.0928408e-38 0 0 0 0
0.62525606 0.04057245 0.58983499 2.129719e-38 0 0 0 0
0.62578368 0.042774342 0.58902413 2.1573777e-38 0 0 0 0
0.62723297 0.044060342 0.59055597 2.194256e-38 0 0 0 0
0.62654901 0.045551445 0.58822608 2.0006452e-38 0 0 0 0
0.6280328 0.046840027 0.58970541 2.1850364e-38 0 0 0 0
0.62883496 0.049627434 0.58885241 2.2219147e-38 0 0 0 0
0.63032377 0.050917134 0.59032851 2.2219147e-38 0 0 0 0
0.63114995 0.05263903 0.59018683 2.2680125e-38 0 0 0 0
0.63168716 0.054865476 0.5893721 2.2956712e-38 0 0 0 0
0.63341945 0.056166936 0.59045279 2.3509886e-38 0 0 0 0
0.63247293 0.057672508 0.58855617 2.3509886e-38 0 0 0 0
0.63442004 0.058728576 0.58986437 2.3509886e-38 0 0 0 0
0.63654387 0.059792813 0.5908857 2.3509886e-38 0 0 0 0
0.63510799 0.061801206 0.58864045 2.3325494e-38 0 0 0 0
0.63750452 0.061535832 0.59053802 2.3509886e-38 0 0 0 0
0.66372365 0.062405638 0.59070551 2.341769e-38 0 0 0 0
0.63787705 0.06403546 0.58943033 2.3509886e-38 0 0 0 0
0.6400215 0.064279735 0.59059989 2.3509886e-38 0 0 0 0
0.66122407 0.065545328 0.59090006 2.3325494e-38 0 0 0 0
0.66389918 0.064937025 0.5899514 2.341769e-38 0 0 0 0
0.63896596 0.066622876 0.58871007 2.3509886e-38 0 0 0 0
0.64095944 0.067400031 0.58950388 2.3509886e-38 0 0 0 0
0.64299345 0.068180427 0.59023833 2.3509886e-38 0 0 0 0
0.64510715 0.068966754 0.59085053 2.3509886e-38 0 0 0 0
0.6614455 0.068078533 0.5900712 2.3509886e-38 0 0 0 0
0.66412371 0.06747523 0.58911979 2.3509886e-38 0 0 0 0
0.64090151 0.070140488 0.58800668 2.3509886e-38 0 0 0 0
0.64291286 0.070922807 0.58878195 2.3509886e-38 0 0 0 0
0.64624536 0.070741594 0.59023923 2.3509886e-38 0 0 0 0
0.65000647 0.071132764 0.59039915 2.3509886e-38 0 0 0 0
0.65282768 0.071426578 0.59053689 2.3509886e-38 0 0 0 0
0.6556927 0.071723752 0.5906235 2.3509886e-38 0 0 0 0
0.65894783 0.070367441 0.59043241 2.3325494e-38 0 0 0 0
0.66166741 0.070616163 0.58924091 2.3509886e-38 0 0 0 0
0.66434884 0.070019007 0.58828628 2.3509886e-38 0 0 0 0
0.64417362 0.072998568 0.58842874 2.3509886e-38 0 0 0 0
0.64658415 0.073266953 0.58920085 2.3509886e-38 0 0 0 0
0.64936435 0.073561944 0.58938724 2.3509886e-38 0 0 0 0
0.65224034 0.073864177 0.58943832 2.3509886e-38 0 0 0 0
0.65588635 0.07341446 0.58999312 2.3509886e-38 0 0 0 0
0.65920341 0.07290604 0.58954608 2.341769e-38 0 0 0 0
0.66188979 0.073159352 0.58840871 2.3509886e-38 0 0 0 0
0.64776552 0.075891137 0.58835864 2.3509886e-38 0 0 0 0
0.64967984 0.07609541 0.58839023 2.3509886e-38 0 0 0 0
0.65256095 0.076402858 0.58843768 2.3509886e-38 0 0 0 0
0.65524089 0.075855248 0.58898246 2.3509886e-38 0 0 0 0
0.65835249 0.076179057 0.58869874 2.3233299e-38 0 0 0 0
0.65749156 0.07861045 0.58802474 2.3509886e-38 0 0 0 0
0.67079812 -0.26739389 0.59112149 1.7240583e-38 0 0 0 0
0.68242687 -0.26835918 0.59270543 2.3509886e-38 0 0 0 0
0.6864782 -0.26931378 0.59105569 2.3509886e-38 0 0 0 0
0.68939191 -0.26768759 0.59230959 2.3509886e-38 0 0 0 0
0.67110419 -0.2667281 0.59362441 1.9268887e-38 0 0 0 0
0.69414645 -0.26584631 0.59217823 2.3509886e-38 0 0 0 0
0.69662791 -0.26360074 0.59248739 2.3509886e-38 0 0 0 0
0.69913143 -0.26253748 0.59145749 2.3509886e-38 0 0 0 0
0.69945759 -0.25878525 0.59332019 2.3509886e-38 0 0 0 0
0.70215458 -0.25623628 0.59172767 2.3509886e-38 0 0 0 0
0.70055413 -0.25386775 0.59376007 2.3509886e-38 0 0 0 0
0.70026344 -0.23962924 0.59150094 2.194256e-38 0 0 0 0
0.69650131 -0.23545854 0.59346753 2.194256e-38 0 0 0 0
0.68839628 -0.22524919 0.59184283 1.9453278e-38 0 0 0 0
0.61072934 -0.016215948 0.59322643 1.2077628e-38 0 0 0 0
0.61171907 -0.013949759 0.59101003 1.1708845e-38 0 0 0 0
0.61186171 -0.0089483717 0.59289348 1.2169823e-38 0 0 0 0
0.61235851 -0.0074085691 0.59169924 1.1708845e-38 0 0 0 0
0.61303735 -0.0016586501 0.59249127 1.2262019e-38 0 0 0 0
0.6139732 0.0024852066 0.59318149 1.4290323e-38 0 0 0 0
0.61464685 0.0051720059 0.5925104 1.4751301e-38 0 0 0 0
0.61548054 0.008195797 0.59255952 1.3644953e-38 0 0 0 0
0.61614829 0.010663567 0.59248114 1.3552758e-38 0 0 0 0
0.61681992 0.013135841 0.59240043 1.3644953e-38 0 0 0 0
0.6176433 0.016172262 0.59247154 1.5673257e-38 0 0 0 0
0.6186325 0.019774985 0.59267485 1.3644953e-38 0 0 0 0
0.6194734 0.023059901 0.59214354 1.3552758e-38 0 0 0 0
0.62037027 0.024827469 0.59342241 2.0559625e-38 0 0 0 0
0.62080163 0.027235845 0.59218961 2.046743e-38 0 0 0 0
0.62155598 0.028413162 0.59277898 2.0836212e-38 0 0 0 0
0.62278944 0.031497519 0.59269422 2.0190843e-38 0 0 0 0
0.66555256 0.032355379 0.59358764 2.3141103e-38 0 0 0 0
0.62379342 0.034808569 0.59190083 2.0190843e-38 0 0 0 0
0.62470663 0.034959804 0.59349537 2.2587929e-38 0 0 0 0
0.62561321 0.037466966 0.59303796 2.1850364e-38 0 0 0 0
0.62615198 0.039659783 0.59221268 2.2126951e-38 0 0 0 0
0.62763315 0.04094325 0.59368086 2.2680125e-38 0 0 0 0
0.6269483 0.042426042 0.59136659 2.2034756e-38 0 0 0 0
0.62843561 0.043711774 0.59283012 2.2864516e-38 0 0 0 0
0.62923241 0.046487823 0.59199035 2.2311342e-38 0 0 0 0
0.63077569 0.046959683 0.59353173 2.3325494e-38 0 0 0 0
0.6311903 0.049421038 0.59234762 2.3141103e-38 0 0 0 0
0.66322243 0.050661854 0.59371859 2.3509886e-38 0 0 0 0
0.63231719 0.051714472 0.59212005 2.3509886e-38 0 0 0 0
0.63453221 0.052518737 0.59354699 2.3509886e-38 0 0 0 0
0.66329414 0.052334409 0.5932889 2.3509886e-38 0 0 0 0
0.63449371 0.055079982 0.59204996 2.3509886e-38 0 0 0 0
0.63741231 0.056223102 0.5933165 2.3509886e-38 0 0 0 0
0.66340178 0.054846659 0.59264374 2.3509886e-38 0 0 0 0
0.63732934 0.058793679 0.59189487 2.3509886e-38 0 0 0 0
0.63987327 0.058534868 0.59354544 2.3509886e-38 0 0 0 0
0.66056216 0.05797654 0.59337687 2.3141103e-38 0 0 0 0
0.66354477 0.058202013 0.59178317 2.3509886e-38 0 0 0 0
0.64023882 0.061027564 0.59245861 2.3509886e-38 0 0 0 0
0.6430611 0.061609503 0.5935083 2.3509886e-38 0 0 0 0
0.64610541 0.062464174 0.59364355 2.3509886e-38 0 0 0 0
0.64895821 0.062743828 0.59370041 2.3509886e-38 0 0 0 0
0.65812647 0.061111245 0.59349108 2.3325494e-38 0 0 0 0
0.66085583 0.061335072 0.59227788 2.3509886e-38 0 0 0 0
0.663652 0.060722813 0.59113693 2.3233299e-38 0 0 0 0
0.64145255 0.064442754 0.5913803 2.3509886e-38 0 0 0 0
0.64374244 0.064695291 0.59232348 2.3509886e-38 0 0 0 0
0.64641511 0.064969271 0.59265757 2.3509886e-38 0 0 0 0
0.64891887 0.064942881 0.59281647 2.3509886e-38 0 0 0 0
0.65276504 0.063950472 0.59363562 2.3509886e-38 0 0 0 0
0.65593517 0.064249612 0.59323001 2.3509886e-38 0 0 0 0
0.65841651 0.064469039 0.59239388 2.3325494e-38 0 0 0 0
0.66107655 0.063859455 0.59145182 2.2587929e-38 0 0 0 0
0.6448645 0.067289479 0.59156984 2.3509886e-38 0 0 0 0
0.64672548 0.067479588 0.5916695 2.3509886e-38 0 0 0 0
0.64983439 0.067241907 0.59194899 2.3509886e-38 0 0 0 0
0.65224457 0.067213148 0.59227526 2.3509886e-38 0 0 0 0
0.65521014 0.06750834 0.59219491 2.3509886e-38 0 0 0 0
0.65870738 0.067835614 0.59129369 2.3509886e-38 0 0 0 0
0.6469329 0.069156632 0.59100938 2.3509886e-38 0 0 0 0
0.64979613 0.069449708 0.59106147 2.3509886e-38 0 0 0 0
0.65256828 0.069737338 0.59127432 2.3509886e-38 0 0 0 0
0.65549934 0.070035569 0.59125304 2.3509886e-38 0 0 0 0
0.6784035 -0.26741117 0.59434384 2.3509886e-38 0 0 0 0
0.67298305 -0.26651543 0.59519291 2.0559625e-38 0 0 0 0
0.67591202 -0.26687795 0.5951668 2.1850364e-38 0 0 0 0
0.68278772 -0.26578358 0.59628004 2.3509886e-38 0 0 0 0
0.68612051 -0.26557672 0.59555721 2.3509886e-38 0 0 0 0
0.68993187 -0.26561171 0.5941503 2.3509886e-38 0 0 0 0
0.65746146 -0.26113352 0.59634006 1.4105931e-38 0 0 0 0
0.66159868 -0.26327795 0.59613222 1.9084495e-38 0 0 0 0
0.69134396 -0.26282194 0.59601438 2.3509886e-38 0 0 0 0
0.69445008 -0.26091501 0.5953871 2.3509886e-38 0 0 0 0
0.69693923 -0.25984856 0.59436834 2.3509886e-38 0 0 0 0
0.69822025 -0.25659692 0.59482896 2.3509886e-38 0 0 0 0
0.6969552 -0.25440013 0.59637946 2.3509886e-38 0 0 0 0
0.69802022 -0.24948442 0.59685743 2.3509886e-38 0 0 0 0
0.69918233 -0.25162086 0.59546095 2.3509886e-38 0 0 0 0
0.69766158 -0.24151105 0.59589624 2.341769e-38 0 0 0 0
0.69281077 -0.23133881 0.59535462 1.9176691e-38 0 0 0 0
0.60883272 -0.026503729 0.59556162 1.2077628e-38 0 0 0 0
0.60953057 -0.025023498 0.59401816 1.2354214e-38 0 0 0 0
0.60970742 -0.019252788 0.5956645 1.392154e-38 0 0 0 0
0.6106261 -0.012778317 0.59586394 1.1708845e-38 0 0 0 0
0.61136633 -0.010483813 0.59408432 1.1893236e-38 0 0 0 0
0.61162281 -0.0070879217 0.59610116 1.3737149e-38 0 0 0 0
0.61196196 -0.0055362112 0.59518248 1.3644953e-38 0 0 0 0
0.61245465 -0.0038699913 0.59556407 1.4751301e-38 0 0 0 0
0.61311829 -0.0014233487 0.59548795 1.539667e-38 0 0 0 0
0.61394709 0.0015825029 0.59553832 1.5120083e-38 0 0 0 0
0.61461949 0.0042629149 0.59487295 1.3644953e-38 0 0 0 0
0.61542833 0.006824024 0.59611595 1.3644953e-38 0 0 0 0
0.61625981 0.010071486 0.59559196 1.4474714e-38 0 0 0 0
0.6170938 0.013328692 0.59506679 1.5212279e-38 0 0 0 0
0.61795938 0.015890492 0.59621876 2.1481582e-38 0 0 0 0
0.61824322 0.0174795 0.59540355 2.1204995e-38 0 0 0 0
0.61920464 0.019710485 0.59541124 1.8439126e-38 0 0 0 0
0.62036061 0.022505317 0.59550202 2.0928408e-38 0 0 0 0
0.62154281 0.025305359 0.59555304 2.1850364e-38 0 0 0 0
0.62299579 0.028672069 0.59556186 2.1758169e-38 0 0 0 0
0.62462819 0.031803358 0.59585011 2.2403538e-38 0 0 0 0
0.62594891 0.034891374 0.5956285 2.2403538e-38 0 0 0 0
0.66473073 0.03485278 0.59438753 2.341769e-38 0 0 0 0
0.62678158 0.036070585 0.59609348 2.194256e-38 0 0 0 0
0.62761128 0.037766743 0.59593594 2.2680125e-38 0 0 0 0
0.66424131 0.037346832 0.59467214 2.3509886e-38 0 0 0 0
0.62878305 0.040146466 0.59570235 2.3325494e-38 0 0 0 0
0.66395855 0.039840445 0.5946362 2.341769e-38 0 0 0 0
0.62892759 0.042721767 0.59431136 2.3509886e-38 0 0 0 0
0.63127136 0.043972805 0.59582633 2.3509886e-38 0 0 0 0
0.66358149 0.043165572 0.59458828 2.3325494e-38 0 0 0 0
0.63197839 0.047110319 0.59465396 2.341769e-38 0 0 0 0
0.63387525 0.046521604 0.59634817 2.3509886e-38 0 0 0 0
0.65961295 0.047121305 0.59692883 2.3509886e-38 0 0 0 0
0.66320443 0.046491083 0.59454042 2.3325494e-38 0 0 0 0
0.63424003 0.048981287 0.59525704 2.3509886e-38 0 0 0 0
0.63687885 0.049541593 0.59655762 2.3509886e-38 0 0 0 0
0.65983129 0.049618423 0.59611177 2.3509886e-38 0 0 0 0
0.66315085 0.048991002 0.59414768 2.3509886e-38 0 0 0 0
0.63531458 0.051525265 0.59455132 2.3509886e-38 0 0 0 0
0.63756716 0.052585691 0.5953508 2.3509886e-38 0 0 0 0
0.64031827 0.053153716 0.59648764 2.3509886e-38 0 0 0 0
0.64319128 0.053982329 0.59687161 2.3509886e-38 0 0 0 0
0.65740454 0.052754901 0.59622169 2.3509886e-38 0 0 0 0
0.66012311 0.052955139 0.59501994 2.3509886e-38 0 0 0 0
0.63864928 0.055141259 0.59464347 2.3509886e-38 0 0 0 0
0.64071292 0.055908278 0.59530473 2.3509886e-38 0 0 0 0
0.64339435 0.055636372 0.59622049 2.3509886e-38 0 0 0 0
0.64612693 0.055073444 0.59660798 2.3325494e-38 0 0 0 0
0.64990586 0.056253258 0.59655499 2.3325494e-38 0 0 0 0
0.65278685 0.056522019 0.59658098 2.3325494e-38 0 0 0 0
0.65510148 0.05588682 0.59614742 2.3509886e-38 0 0 0 0
0.65769279 0.056090921 0.59513158 2.3509886e-38 0 0 0 0
0.66034234 0.055463113 0.5941993 2.3509886e-38 0 0 0 0
0.6418891 0.057121471 0.59524184 2.3509886e-38 0 0 0 0
0.64317566 0.05834195 0.5950045 2.3509886e-38 0 0 0 0
0.64653885 0.05839327 0.59530139 2.3509886e-38 0 0 0 0
0.6493268 0.058662258 0.59545791 2.3325494e-38 0 0 0 0
0.65211928 0.05893195 0.59562552 2.341769e-38 0 0 0 0
0.65535098 0.058389276 0.59527439 2.3509886e-38 0 0 0 0
0.65790933 0.058598354 0.59431225 2.341769e-38 0 0 0 0
0.64400542 0.060613979 0.59426105 2.3509886e-38 0 0 0 0
0.64684856 0.060889617 0.59431887 2.3509886e-38 0 0 0 0
0.64970118 0.061166175 0.59437698 2.3509886e-38 0 0 0 0
0.65244168 0.061437909 0.59463191 2.3509886e-38 0 0 0 0
0.65560102 0.060897525 0.59439933 2.341769e-38 0 0 0 0
0.67705941 -0.26433003 0.59901589 2.3509886e-38 0 0 0 0
0.67972213 -0.26495034 0.59794217 2.3509886e-38 0 0 0 0
0.66271591 -0.26306802 0.59736323 1.9084495e-38 0 0 0 0
0.66371185 -0.2627914 0.59878069 1.7240583e-38 0 0 0 0
0.68258512 -0.26332629 0.59921551 2.3509886e-38 0 0 0 0
0.68692589 -0.26247767 0.59830856 2.3509886e-38 0 0 0 0
0.65274924 -0.25866842 0.5974918 1.4105931e-38 0 0 0 0
0.68880379 -0.25994879 0.5994662 2.3509886e-38 0 0 0 0
0.69228703 -0.25824764 0.59826714 2.3509886e-38 0 0 0 0
0.69465053 -0.25712097 0.59742266 2.3509886e-38 0 0 0 0
0.69537807 -0.2520521 0.59838694 2.3509886e-38 0 0 0 0
0.69735008 -0.24759606 0.5975377 2.3509886e-38 0 0 0 0
0.69693637 -0.24505761 0.59769654 2.3509886e-38 0 0 0 0
0.69320434 -0.23545471 0.59860122 2.194256e-38 0 0 0 0
0.60667247 -0.037444357 0.59852797 1.2907388e-38 0 0 0 0
0.60708725 -0.030957995 0.59958375 1.3183975e-38 0 0 0 0
0.60785478 -0.02872185 0.59775537 1.2354214e-38 0 0 0 0
0.60799789 -0.024533641 0.59978586 1.1801041e-38 0 0 0 0
0.60872859 -0.022276483 0.59802425 1.244641e-38 0 0 0 0
0.60896027 -0.018101877 0.59990269 1.7056192e-38 0 0 0 0
0.60964578 -0.015823519 0.5982219 1.2999584e-38 0 0 0 0
0.61027366 -0.013260969 0.599756 1.3644953e-38 0 0 0 0
0.61077833 -0.010951974 0.59838891 1.3829344e-38 0 0 0 0
0.61160147 -0.0079676416 0.59844112 1.6134235e-38 0 0 0 0
0.61258984 -0.0044244532 0.5986219 1.7240583e-38 0 0 0 0
0.61342227 -0.0012059227 0.59808987 1.7978148e-38 0 0 0 0
0.61439168 0.0021266602 0.59888291 1.5673257e-38 0 0 0 0
0.61490899 0.0044710319 0.59750205 1.392154e-38 0 0 0 0
0.61570221 0.0070281136 0.59876591 1.6226431e-38 0 0 0 0
0.61672103 0.01003032 0.59850043 1.9729865e-38 0 0 0 0
0.61753464 0.013513133 0.59743845 2.1573777e-38 0 0 0 0
0.61837375 0.013679112 0.59912872 2.129719e-38 0 0 0 0
0.61936092 0.016930709 0.59835231 2.129719e-38 0 0 0 0
0.62035143 0.020192537 0.59757411 2.1758169e-38 0 0 0 0
0.62109822 0.019556126 0.59958816 2.2034756e-38 0 0 0 0
0.6218788 0.022264449 0.59876156 2.2034756e-38 0 0 0 0
0.62266159 0.02498018 0.5979327 2.2034756e-38 0 0 0 0
0.62413102 0.02625408 0.59938884 2.194256e-38 0 0 0 0
0.62344652 0.027703362 0.59710169 2.2403538e-38 0 0 0 0
0.6250577 0.02873701 0.59889781 2.3048907e-38 0 0 0 0
0.62608039 0.032031678 0.59808552 2.2772321e-38 0 0 0 0
0.62726462 0.03218206 0.5992136 2.3509886e-38 0 0 0 0
0.62835789 0.034164995 0.59908044 2.3509886e-38 0 0 0 0
0.65912127 0.035533022 0.59990841 2.341769e-38 0 0 0 0
0.62878489 0.036861539 0.59782743 2.3509886e-38 0 0 0 0
0.63094532 0.037652854 0.59930348 2.3509886e-38 0 0 0 0
0.65922451 0.03800948 0.59927452 2.3509886e-38 0 0 0 0
0.63163114 0.040655933 0.59808964 2.3509886e-38 0 0 0 0
0.63424331 0.041206904 0.5994066 2.3509886e-38 0 0 0 0
0.65647304 0.041972157 0.59974527 2.3509886e-38 0 0 0 0
0.65932745 0.040489282 0.5986405 2.3509886e-38 0 0 0 0
0.63268465 0.043175619 0.59741151 2.3509886e-38 0 0 0 0
0.63464785 0.043924987 0.59820175 2.3509886e-38 0 0 0 0
0.63696468 0.043637432 0.59966433 2.3509886e-38 0 0 0 0
0.65661579 0.043625098 0.5992052 2.3509886e-38 0 0 0 0
0.6594305 0.042973273 0.59800541 2.3048907e-38 0 0 0 0
0.63587499 0.045935735 0.59787285 2.3509886e-38 0 0 0 0
0.63807189 0.046169598 0.59891713 2.3509886e-38 0 0 0 0
0.64050674 0.047226019 0.59942138 2.3509886e-38 0 0 0 0
0.64332229 0.047474824 0.59948832 2.341769e-38 0 0 0 0
0.64701796 0.047806248 0.59969556 2.3509886e-38 0 0 0 0
0.65548277 0.046018489 0.59898669 2.3325494e-38 0 0 0 0
0.6595338 0.045460619 0.59736937 2.3325494e-38 0 0 0 0
0.63766402 0.048550263 0.59755272 2.3509886e-38 0 0 0 0
0.64006102 0.049610555 0.59812063 2.3509886e-38 0 0 0 0
0.64362645 0.049943443 0.59851658 2.3509886e-38 0 0 0 0
0.64635229 0.049372587 0.59890693 2.341769e-38 0 0 0 0
0.64930171 0.049100533 0.59941339 2.3509886e-38 0 0 0 0
0.65204895 0.049056731 0.59918487 2.3509886e-38 0 0 0 0
0.65443861 0.049238224 0.59846687 2.3325494e-38 0 0 0 0
0.65711707 0.049427535 0.59730905 2.3509886e-38 0 0 0 0
0.64117527 0.052160744 0.59737062 2.3509886e-38 0 0 0 0
0.64393115 0.05241717 0.59754288 2.3509886e-38 0 0 0 0
0.6466608 0.051849924 0.59793198 2.3509886e-38 0 0 0 0
0.64937574 0.052104816 0.59820002 2.341769e-38 0 0 0 0
0.65237594 0.052369013 0.59803015 2.341769e-38 0 0 0 0
0.65476954 0.052557919 0.59730875 2.3509886e-38 0 0 0 0
0.64969361 0.054591797 0.59721375 2.341769e-38 0 0 0 0
0.65262222 0.054858979 0.59716141 2.3325494e-38 0 0 0 0
0.66482079 -0.26216602 0.6014939 1.9268887e-38 0 0 0 0
0.66686612 -0.26205698 0.60276318 2.1850364e-38 0 0 0 0
