# .PCD v0.7 - Point Cloud Data file format
VERSION 0.7
FIELDS x y z rgb normal_x normal_y normal_z curvature
SIZE 4 4 4 4 4 4 4 4
TYPE F F F F F F F F
COUNT 1 1 1 1 1 1 1 1
WIDTH 1094
HEIGHT 1
VIEWPOINT 0 0 0 1 0 0 0
POINTS 1094
DATA ascii
0.7960794 -0.008087582 0.52355105 0 0 0 0 0
0.80231339 -0.0081620747 0.52355123 0 0 0 0 0
0.80616874 -0.0082081435 0.52355134 0 0 0 0 0
0.80876416 -0.0082391575 0.5235514 0 0 0 0 0
0.81123936 -0.0082687344 0.52355152 0 0 0 0 0
0.81400633 -0.0083017973 0.52355158 0 0 0 0 0
0.81664973 -0.008333385 0.52355164 0 0 0 0 0
0.81951225 -0.0083675906 0.52355176 0 0 0 0 0
0.82238054 -0.0084018642 0.52355182 0 0 0 0 0
0.82518256 -0.0084353462 0.52355194 0 0 0 0 0
0.83545369 -0.0085580805 0.52355224 0 0 0 0 0
0.83818865 -0.0085907616 0.52355236 0 0 0 0 0
0.84094226 -0.0086236652 0.52355242 0 0 0 0 0
0.84360945 -0.0086555369 0.52355248 0 0 0 0 0
0.84653163 -0.008690455 0.5235526 0 0 0 0 0
0.84911364 -0.0087213088 0.52355266 0 0 0 0 0
0.85224116 -0.00875868 0.52355278 0 0 0 0 0
0.88043213 -0.009095544 0.52355367 0 0 0 0 0
0.90952444 -0.0094431797 0.52355456 0 0 0 0 0
0.91241288 -0.0094776955 0.52355462 0 0 0 0 0
0.64846265 -0.0063236533 0.52354646 0 0 0 0 0
0.73104072 -0.00731041 0.52354902 0 0 0 0 0
0.76109737 -0.0076695685 0.52354991 0 0 0 0 0
0.76334572 -0.0076964349 0.52355003 0 0 0 0 0
0.77002996 -0.0077763074 0.52355021 0 0 0 0 0
0.77223468 -0.0078026522 0.52355027 0 0 0 0 0
0.77542722 -0.007840801 0.52355039 0 0 0 0 0
0.80839694 -0.0082347691 0.5235514 0 0 0 0 0
0.81170732 -0.0082743261 0.52355152 0 0 0 0 0
0.81400406 -0.0083017703 0.52355158 0 0 0 0 0
0.81745231 -0.0083429758 0.5235517 0 0 0 0 0
0.82090878 -0.008384278 0.52355182 0 0 0 0 0
0.82328373 -0.0084126573 0.52355188 0 0 0 0 0
0.83658117 -0.008571553 0.5235523 0 0 0 0 0
0.83898735 -0.0086003058 0.52355236 0 0 0 0 0
0.84148526 -0.0086301537 0.52355242 0 0 0 0 0
0.85121185 -0.0087463809 0.52355272 0 0 0 0 0
0.85344684 -0.0087730875 0.52355283 0 0 0 0 0
0.85696638 -0.0088151433 0.52355289 0 0 0 0 0
0.86045814 -0.0088568684 0.52355301 0 0 0 0 0
0.86540318 -0.008915958 0.52355319 0 0 0 0 0
0.86872286 -0.0089556267 0.52355325 0 0 0 0 0
0.87235689 -0.0089990506 0.52355337 0 0 0 0 0
0.88319719 -0.0091285855 0.52355373 0 0 0 0 0
0.88723767 -0.0091768671 0.52355385 0 0 0 0 0
0.88990366 -0.0092087239 0.52355391 0 0 0 0 0
0.89609724 -0.0092827333 0.52355415 0 0 0 0 0
0.89969516 -0.009325726 0.52355427 0 0 0 0 0
0.90220165 -0.0093556773 0.52355433 0 0 0 0 0
0.90682304 -0.0094109001 0.52355444 0 0 0 0 0
0.91469467 -0.0095049608 0.52355468 0 0 0 0 0
0.91723514 -0.0095353182 0.5235548 0 0 0 0 0
0.93256783 -0.0097185345 0.52355528 0 0 0 0 0
0.93800253 -0.0097834757 0.52355546 0 0 0 0 0
0.94011122 -0.0098086735 0.52355552 0 0 0 0 0
0.94265664 -0.0098390896 0.52355558 0 0 0 0 0
0.94667381 -0.0098870918 0.5235557 0 0 0 0 0
0.95603341 -0.0099989334 0.52355599 0 0 0 0 0
0.95846856 -0.010028032 0.52355605 0 0 0 0 0
0.9659822 -0.010117816 0.52355629 0 0 0 0 0
0.96880269 -0.010151519 0.52355641 0 0 0 0 0
0.9856931 -0.010353348 0.52355689 0 0 0 0 0
0.98813134 -0.010382484 0.52355701 0 0 0 0 0
0.99052739 -0.010411115 0.52355707 0 0 0 0 0
0.63925737 -0.0062136562 0.52354616 0 0 0 0 0
0.64152849 -0.0062407949 0.52354622 0 0 0 0 0
0.64388591 -0.0062689641 0.52354628 0 0 0 0 0
0.64666092 -0.0063021239 0.5235464 0 0 0 0 0
0.64923429 -0.0063328743 0.52354646 0 0 0 0 0
0.66511029 -0.0065225824 0.52354699 0 0 0 0 0
0.66823131 -0.0065598767 0.52354705 0 0 0 0 0
0.6707527 -0.0065900055 0.52354711 0 0 0 0 0
0.67366415 -0.0066247955 0.52354723 0 0 0 0 0
0.67643046 -0.0066578509 0.52354729 0 0 0 0 0
0.67960334 -0.0066957651 0.52354741 0 0 0 0 0
0.68251687 -0.0067305802 0.52354753 0 0 0 0 0
0.68548071 -0.0067659966 0.52354759 0 0 0 0 0
0.69485909 -0.0068780622 0.52354789 0 0 0 0 0
0.69811147 -0.0069169262 0.52354801 0 0 0 0 0
0.70117617 -0.0069535472 0.52354807 0 0 0 0 0
0.70378304 -0.0069846981 0.52354819 0 0 0 0 0
0.70682192 -0.0070210104 0.52354825 0 0 0 0 0
0.70983106 -0.0070569678 0.52354836 0 0 0 0 0
0.71298593 -0.0070946668 0.52354842 0 0 0 0 0
0.71593183 -0.0071298685 0.52354854 0 0 0 0 0
0.71892524 -0.0071656378 0.52354866 0 0 0 0 0
0.72195643 -0.0072018588 0.52354872 0 0 0 0 0
0.73419207 -0.0073480671 0.52354908 0 0 0 0 0
0.73634583 -0.0073738033 0.5235492 0 0 0 0 0
0.73947614 -0.007411208 0.52354926 0 0 0 0 0
0.74258971 -0.0074484134 0.52354938 0 0 0 0 0
0.74562901 -0.0074847313 0.52354944 0 0 0 0 0
0.74880373 -0.0075226668 0.52354956 0 0 0 0 0
0.75193065 -0.007560032 0.52354968 0 0 0 0 0
0.75495249 -0.0075961412 0.52354974 0 0 0 0 0
0.75726473 -0.0076237712 0.5235498 0 0 0 0 0
0.76036429 -0.007660809 0.52354991 0 0 0 0 0
0.77868867 -0.0078797741 0.52355051 0 0 0 0 0
0.78190482 -0.0079182042 0.52355057 0 0 0 0 0
0.78509837 -0.0079563651 0.52355069 0 0 0 0 0
0.7874344 -0.0079842797 0.52355075 0 0 0 0 0
0.79053557 -0.008021337 0.52355087 0 0 0 0 0
0.79384118 -0.0080608372 0.52355099 0 0 0 0 0
0.79632878 -0.0080905613 0.52355105 0 0 0 0 0
0.79852152 -0.008116764 0.52355111 0 0 0 0 0
0.82658935 -0.0084521575 0.523552 0 0 0 0 0
0.82977724 -0.0084902504 0.52355206 0 0 0 0 0
0.83227187 -0.0085200593 0.52355212 0 0 0 0 0
0.83560634 -0.008559905 0.52355224 0 0 0 0 0
0.87466705 -0.0090266559 0.52355349 0 0 0 0 0
0.76812768 -0.0077535766 0.52355015 0 0 0 0 0
0.79386121 -0.0080610765 0.52355099 0 0 0 0 0
0.79632169 -0.0080904774 0.52355105 0 0 0 0 0
0.79890811 -0.0081213834 0.52355111 0 0 0 0 0
0.82592654 -0.0084442366 0.52355194 0 0 0 0 0
0.85277832 -0.0087650996 0.52355278 0 0 0 0 0
0.85512871 -0.0087931845 0.52355283 0 0 0 0 0
0.88044423 -0.0090956893 0.52355367 0 0 0 0 0
0.88327813 -0.0091295531 0.52355373 0 0 0 0 0
0.88621569 -0.0091646546 0.52355385 0 0 0 0 0
0.91233671 -0.0094767846 0.52355462 0 0 0 0 0
0.91518986 -0.0095108785 0.52355474 0 0 0 0 0
0.91798621 -0.0095442934 0.5235548 0 0 0 0 0
0.9395141 -0.0098015377 0.52355546 0 0 0 0 0
0.94233894 -0.0098352926 0.52355558 0 0 0 0 0
0.94535434 -0.0098713255 0.52355564 0 0 0 0 0
0.94818169 -0.0099051101 0.52355576 0 0 0 0 0
0.97034085 -0.010169899 0.52355641 0 0 0 0 0
0.97326398 -0.010204828 0.52355653 0 0 0 0 0
0.97631276 -0.010241259 0.52355659 0 0 0 0 0
0.97925591 -0.010276428 0.52355671 0 0 0 0 0
0.98229444 -0.010312736 0.52355683 0 0 0 0 0
0.6343894 -0.0061554867 0.52354604 0 0 0 0 0
0.64378196 -0.0062677222 0.52354628 0 0 0 0 0
0.64909232 -0.0063311774 0.52354646 0 0 0 0 0
0.65166926 -0.0063619707 0.52354658 0 0 0 0 0
0.65489262 -0.0064004874 0.52354664 0 0 0 0 0
0.72142452 -0.0071955025 0.52354872 0 0 0 0 0
0.77265024 -0.007807618 0.52355027 0 0 0 0 0
0.91959631 -0.0095635336 0.52355486 0 0 0 0 0
0.92224371 -0.0095951669 0.52355492 0 0 0 0 0
0.92454404 -0.0096226549 0.52355504 0 0 0 0 0
0.96652913 -0.010124351 0.52355629 0 0 0 0 0
0.97062141 -0.010173251 0.52355641 0 0 0 0 0
0.9748742 -0.010224069 0.52355659 0 0 0 0 0
0.79450297 -0.008068745 0.52355099 0 0 0 0 0
0.80036199 -0.0081387572 0.52355117 0 0 0 0 0
0.88335305 -0.0091304481 0.52355373 0 0 0 0 0
0.89001817 -0.009210092 0.52355397 0 0 0 0 0
0.92831528 -0.0096677188 0.5235551 0 0 0 0 0
0.93811792 -0.0097848549 0.52355546 0 0 0 0 0
0.66498137 -0.0065210415 0.52354693 0 0 0 0 0
0.66768837 -0.0065533891 0.52354705 0 0 0 0 0
0.70377356 -0.0069845845 0.52354819 0 0 0 0 0
0.76965308 -0.007771804 0.52355021 0 0 0 0 0
0.77500832 -0.0078357961 0.52355039 0 0 0 0 0
0.78190506 -0.007918207 0.52355057 0 0 0 0 0
0.80351627 -0.0081764478 0.52355129 0 0 0 0 0
0.80800402 -0.0082300734 0.5235514 0 0 0 0 0
0.81722558 -0.0083402656 0.5235517 0 0 0 0 0
0.82080269 -0.0083830096 0.52355182 0 0 0 0 0
0.8589524 -0.0088388752 0.52355295 0 0 0 0 0
0.85907394 -0.0088403281 0.52355295 0 0 0 0 0
0.92279464 -0.0096017504 0.52355498 0 0 0 0 0
0.92585993 -0.0096383784 0.52355504 0 0 0 0 0
0.92863774 -0.0096715726 0.52355516 0 0 0 0 0
0.93149257 -0.009705686 0.52355522 0 0 0 0 0
0.95332313 -0.0099665467 0.52355587 0 0 0 0 0
0.9562301 -0.010001284 0.52355599 0 0 0 0 0
0.95926708 -0.010037573 0.52355611 0 0 0 0 0
0.96217918 -0.010072371 0.52355617 0 0 0 0 0
0.96819913 -0.010144306 0.52355635 0 0 0 0 0
0.98470271 -0.010341514 0.52355689 0 0 0 0 0
0.9876523 -0.010376759 0.52355695 0 0 0 0 0
0.9903574 -0.010409083 0.52355707 0 0 0 0 0
0.99343026 -0.010445802 0.52355713 0 0 0 0 0
0.63598424 -0.0061745443 0.52354604 0 0 0 0 0
0.65516442 -0.0064037354 0.52354664 0 0 0 0 0
0.81445396 -0.0083071468 0.52355158 0 0 0 0 0
0.68579668 -0.0067697722 0.52354759 0 0 0 0 0
0.8902449 -0.0092128012 0.52355397 0 0 0 0 0
0.64650804 -0.0063002971 0.5235464 0 0 0 0 0
0.68226415 -0.0067275604 0.52354747 0 0 0 0 0
0.73637134 -0.0073741078 0.5235492 0 0 0 0 0
0.77192539 -0.0077989567 0.52355027 0 0 0 0 0
0.87529206 -0.0090341251 0.52355349 0 0 0 0 0
0.83235836 -0.0085210931 0.52355218 0 0 0 0 0
0.8647092 -0.0089076664 0.52355313 0 0 0 0 0
0.90418625 -0.0093793925 0.52355438 0 0 0 0 0
0.63313007 -0.0061404384 0.52354598 0 0 0 0 0
0.63152379 -0.0061212443 0.52354592 0 0 0 0 0
0.67935538 -0.0066928021 0.52354741 0 0 0 0 0
0.7030732 -0.0069762156 0.52354813 0 0 0 0 0
0.71599269 -0.0071305959 0.52354854 0 0 0 0 0
0.73946673 -0.0074110953 0.52354926 0 0 0 0 0
0.99098641 -0.010416601 0.52355707 0 0 0 0 0
0.74219799 -0.0074437326 0.52354938 0 0 0 0 0
0.80299246 -0.0081701893 0.52355123 0 0 0 0 0
0.80519277 -0.0081964806 0.52355129 0 0 0 0 0
0.811382 -0.0082704388 0.52355152 0 0 0 0 0
0.81475723 -0.0083107706 0.52355158 0 0 0 0 0
0.81968784 -0.0083696879 0.52355176 0 0 0 0 0
0.86889088 -0.0089576337 0.52355331 0 0 0 0 0
0.94187033 -0.0098296935 0.52355558 0 0 0 0 0
0.63391262 -0.0061497893 0.52354598 0 0 0 0 0
0.61049962 0.075956821 0.52354008 0 0 0 0 0
0.61071026 0.097294375 0.52354497 0 0 0 0 0
0.61072755 0.099043444 0.52354532 0 0 0 0 0
0.60990739 0.015973546 0.52352637 0 0 0 0 0
0.60992759 0.018021479 0.52352685 0 0 0 0 0
0.60993844 0.019118451 0.52352709 0 0 0 0 0
0.60995454 0.020752154 0.52352744 0 0 0 0 0
0.60997719 0.023042619 0.52352798 0 0 0 0 0
0.61000508 0.025867619 0.52352864 0 0 0 0 0
0.61003798 0.029205069 0.52352935 0 0 0 0 0
0.61011541 0.037044235 0.5235312 0 0 0 0 0
0.61018348 0.043935586 0.52353275 0 0 0 0 0
0.61023355 0.049012024 0.52353388 0 0 0 0 0
0.61026704 0.052403402 0.52353466 0 0 0 0 0
0.61030191 0.055932008 0.52353549 0 0 0 0 0
0.61034548 0.0603466 0.5235365 0 0 0 0 0
0.61038256 0.064098381 0.52353734 0 0 0 0 0
0.61041427 0.067314044 0.52353811 0 0 0 0 0
0.61045182 0.071118385 0.52353895 0 0 0 0 0
0.61047667 0.073631048 0.52353954 0 0 0 0 0
0.61049843 0.075835451 0.52354002 0 0 0 0 0
0.61053264 0.079303458 0.52354085 0 0 0 0 0
0.61056942 0.083026938 0.52354169 0 0 0 0 0
0.61062503 0.088660508 0.52354294 0 0 0 0 0
0.61065036 0.091225609 0.52354354 0 0 0 0 0
0.61068374 0.094605431 0.52354431 0 0 0 0 0
0.6107108 0.097347505 0.52354497 0 0 0 0 0
0.61073941 0.10024557 0.52354562 0 0 0 0 0
0.61076432 0.10276715 0.52354622 0 0 0 0 0
0.61077023 0.10336431 0.52354634 0 0 0 0 0
0.61080295 0.10667697 0.52354711 0 0 0 0 0
0.61082804 0.10921927 0.52354765 0 0 0 0 0
0.61086237 0.11269575 0.52354848 0 0 0 0 0
0.61084253 0.11068465 0.52354801 0 0 0 0 0
0.61088902 0.11539694 0.52354908 0 0 0 0 0
0.61089218 0.11571818 0.52354914 0 0 0 0 0
0.61094588 0.12115586 0.52355039 0 0 0 0 0
0.61097139 0.12373581 0.52355099 0 0 0 0 0
0.61100572 0.12721661 0.52355176 0 0 0 0 0
0.61103666 0.13034895 0.52355248 0 0 0 0 0
0.61106378 0.1330961 0.52355313 0 0 0 0 0
0.6110903 0.13578123 0.52355373 0 0 0 0 0
0.61112458 0.13925213 0.5235545 0 0 0 0 0
0.61115998 0.14284115 0.52355534 0 0 0 0 0
0.61118311 0.14518191 0.52355587 0 0 0 0 0
0.61120969 0.14787194 0.52355647 0 0 0 0 0
0.61124325 0.15127102 0.52355731 0 0 0 0 0
0.61127716 0.15470609 0.52355808 0 0 0 0 0
0.61130482 0.15751116 0.52355868 0 0 0 0 0
0.6113255 0.15960339 0.52355915 0 0 0 0 0
0.61136091 0.16319035 0.52355999 0 0 0 0 0
0.61139494 0.16663483 0.52356076 0 0 0 0 0
0.61142343 0.16952145 0.52356148 0 0 0 0 0
0.61145115 0.17233008 0.52356207 0 0 0 0 0
0.6114803 0.17528176 0.52356279 0 0 0 0 0
0.61151439 0.17873356 0.52356356 0 0 0 0 0
0.61154252 0.18158264 0.52356422 0 0 0 0 0
0.6116209 0.18951906 0.52356601 0 0 0 0 0
0.6116448 0.19194217 0.52356654 0 0 0 0 0
0.60992372 0.017631553 0.52352673 0 0 0 0 0
0.60993934 0.019214429 0.52352709 0 0 0 0 0
0.60995585 0.020886682 0.5235275 0 0 0 0 0
0.60998058 0.023386374 0.52352804 0 0 0 0 0
0.61000645 0.026009582 0.52352864 0 0 0 0 0
0.61003476 0.028875977 0.52352929 0 0 0 0 0
0.61003947 0.029355168 0.52352941 0 0 0 0 0
0.61005634 0.031061903 0.52352983 0 0 0 0 0
0.61006105 0.031541437 0.52352989 0 0 0 0 0
0.61008435 0.033898436 0.52353042 0 0 0 0 0
0.61011827 0.03733588 0.52353126 0 0 0 0 0
0.61014974 0.040524118 0.52353197 0 0 0 0 0
0.61018395 0.043984246 0.52353275 0 0 0 0 0
0.61017627 0.043205932 0.52353257 0 0 0 0 0
0.61019999 0.045613274 0.52353311 0 0 0 0 0
0.61023605 0.049261075 0.52353394 0 0 0 0 0
0.61026865 0.05256268 0.52353472 0 0 0 0 0
0.61030042 0.055783127 0.52353543 0 0 0 0 0
0.61030942 0.056696538 0.52353567 0 0 0 0 0
0.61032242 0.058009714 0.52353597 0 0 0 0 0
0.61032629 0.058403958 0.52353603 0 0 0 0 0
0.61033964 0.059752423 0.52353638 0 0 0 0 0
0.61035055 0.060858853 0.52353662 0 0 0 0 0
0.61038345 0.064192086 0.5235374 0 0 0 0 0
0.61041605 0.067495972 0.52353811 0 0 0 0 0
0.61046749 0.072703868 0.5235393 0 0 0 0 0
0.61050177 0.076173507 0.52354014 0 0 0 0 0
0.61053526 0.079566002 0.52354091 0 0 0 0 0
0.61058849 0.084961042 0.52354211 0 0 0 0 0
0.61061698 0.087846652 0.52354276 0 0 0 0 0
0.61065251 0.091439255 0.5235436 0 0 0 0 0
0.61068475 0.094708972 0.52354437 0 0 0 0 0
0.61071056 0.097320847 0.52354497 0 0 0 0 0
0.61073691 0.099987507 0.52354556 0 0 0 0 0
0.61077154 0.10350025 0.52354634 0 0 0 0 0
0.61080688 0.10707562 0.52354717 0 0 0 0 0
0.61082959 0.10937441 0.52354771 0 0 0 0 0
0.61085653 0.11210737 0.52354831 0 0 0 0 0
0.6108852 0.1150082 0.52354896 0 0 0 0 0
0.61092293 0.11883053 0.52354985 0 0 0 0 0
0.61094677 0.12124816 0.52355039 0 0 0 0 0
0.61097443 0.12404764 0.52355105 0 0 0 0 0
0.61100608 0.12725097 0.52355176 0 0 0 0 0
0.61103666 0.13034678 0.52355248 0 0 0 0 0
0.61106509 0.13322955 0.52355313 0 0 0 0 0
0.61109281 0.13603795 0.52355379 0 0 0 0 0
0.61112648 0.13944812 0.52355456 0 0 0 0 0
0.61115777 0.14261523 0.52355528 0 0 0 0 0
0.61118567 0.14544111 0.52355593 0 0 0 0 0
0.61120981 0.14788334 0.52355653 0 0 0 0 0
0.61124212 0.1511552 0.52355725 0 0 0 0 0
0.61127603 0.15459204 0.52355802 0 0 0 0 0
0.61130345 0.15736814 0.52355868 0 0 0 0 0
0.61132938 0.15999277 0.52355927 0 0 0 0 0
0.61136281 0.16338435 0.52356005 0 0 0 0 0
0.61139494 0.16663516 0.52356076 0 0 0 0 0
0.61142182 0.16936074 0.52356142 0 0 0 0 0
0.61144602 0.17180769 0.52356195 0 0 0 0 0
0.6114831 0.17556335 0.52356285 0 0 0 0 0
0.6115157 0.17886546 0.52356356 0 0 0 0 0
0.61154002 0.1813294 0.52356416 0 0 0 0 0
0.61156631 0.18398969 0.52356476 0 0 0 0 0
0.61159754 0.18715347 0.52356547 0 0 0 0 0
0.6116339 0.1908374 0.52356631 0 0 0 0 0
0.61165446 0.1929175 0.52356678 0 0 0 0 0
0.60992062 0.017315634 0.52352667 0 0 0 0 0
0.60993397 0.018665642 0.52352697 0 0 0 0 0
0.60995871 0.021175563 0.52352756 0 0 0 0 0
0.60998321 0.023655191 0.5235281 0 0 0 0 0
0.61000991 0.026358686 0.52352875 0 0 0 0 0
0.61003196 0.028593242 0.52352923 0 0 0 0 0
0.61005241 0.030664995 0.52352971 0 0 0 0 0
0.61008698 0.034165561 0.52353048 0 0 0 0 0
0.61011964 0.037470154 0.52353126 0 0 0 0 0
0.61015654 0.041211449 0.52353209 0 0 0 0 0
0.61017752 0.043335855 0.52353263 0 0 0 0 0
0.61020589 0.046209026 0.52353328 0 0 0 0 0
0.61023659 0.049319685 0.523534 0 0 0 0 0
0.61027092 0.052793473 0.52353477 0 0 0 0 0
0.61029506 0.055237889 0.52353531 0 0 0 0 0
0.61031729 0.057492398 0.52353585 0 0 0 0 0
0.61035556 0.06136626 0.52353674 0 0 0 0 0
0.61038584 0.064430803 0.52353746 0 0 0 0 0
0.61042202 0.068096653 0.52353829 0 0 0 0 0
0.61044407 0.07033053 0.52353877 0 0 0 0 0
0.61046928 0.072885826 0.52353936 0 0 0 0 0
0.6105032 0.076320611 0.52354014 0 0 0 0 0
0.61053878 0.079926297 0.52354097 0 0 0 0 0
0.6105606 0.082131378 0.52354145 0 0 0 0 0
0.61058474 0.084579632 0.52354205 0 0 0 0 0
0.61062169 0.088318169 0.52354288 0 0 0 0 0
0.61065423 0.0916145 0.52354366 0 0 0 0 0
0.61068499 0.094729722 0.52354437 0 0 0 0 0
0.61070257 0.096510753 0.52354479 0 0 0 0 0
0.61073643 0.099942021 0.52354556 0 0 0 0 0
0.6107704 0.10338423 0.52354634 0 0 0 0 0
0.61080563 0.1069527 0.52354717 0 0 0 0 0
0.61083061 0.10948045 0.52354771 0 0 0 0 0
0.61085504 0.11195625 0.52354831 0 0 0 0 0
0.61088908 0.11539926 0.52354908 0 0 0 0 0
0.61092281 0.11881764 0.52354985 0 0 0 0 0
0.61094826 0.12139452 0.52355045 0 0 0 0 0
0.61097431 0.12403158 0.52355105 0 0 0 0 0
0.61100644 0.12728815 0.52355182 0 0 0 0 0
0.61104345 0.13103718 0.52355266 0 0 0 0 0
0.6110673 0.13345307 0.52355319 0 0 0 0 0
0.61109239 0.13599478 0.52355379 0 0 0 0 0
0.6111238 0.13917539 0.5235545 0 0 0 0 0
0.61115742 0.14258008 0.52355528 0 0 0 0 0
0.61118454 0.14532623 0.52355593 0 0 0 0 0
0.611184 0.14527035 0.52355593 0 0 0 0 0
0.61120886 0.1477876 0.52355647 0 0 0 0 0
0.61124396 0.15134472 0.52355731 0 0 0 0 0
0.61127836 0.15482607 0.52355808 0 0 0 0 0
0.61130416 0.15744194 0.52355868 0 0 0 0 0
0.61132896 0.15995033 0.52355927 0 0 0 0 0
0.61133051 0.16011178 0.52355927 0 0 0 0 0
0.61136115 0.16321501 0.52355999 0 0 0 0 0
0.61139625 0.16676581 0.52356082 0 0 0 0 0
0.61142313 0.16949198 0.52356142 0 0 0 0 0
0.61144817 0.17202455 0.52356201 0 0 0 0 0
0.61148173 0.17542578 0.52356279 0 0 0 0 0
0.61148077 0.17532647 0.52356279 0 0 0 0 0
0.6115191 0.17921095 0.52356368 0 0 0 0 0
0.61150736 0.17802107 0.52356339 0 0 0 0 0
0.61154354 0.18168285 0.52356422 0 0 0 0 0
0.61156625 0.18398699 0.52356476 0 0 0 0 0
0.61159766 0.18716533 0.52356547 0 0 0 0 0
0.61160505 0.1879141 0.52356565 0 0 0 0 0
0.61163026 0.19046642 0.52356625 0 0 0 0 0
0.61162889 0.19032818 0.52356619 0 0 0 0 0
0.61165208 0.19267859 0.52356672 0 0 0 0 0
0.61164838 0.19230214 0.52356666 0 0 0 0 0
0.6099363 0.018904939 0.52352703 0 0 0 0 0
0.60995877 0.021177471 0.52352756 0 0 0 0 0
0.60995978 0.021284215 0.52352756 0 0 0 0 0
0.60998386 0.023718581 0.5235281 0 0 0 0 0
0.6099847 0.023806065 0.52352816 0 0 0 0 0
0.61001062 0.026432112 0.52352875 0 0 0 0 0
0.61000437 0.025797494 0.52352858 0 0 0 0 0
0.6100322 0.028618798 0.52352923 0 0 0 0 0
0.61002481 0.027869187 0.52352905 0 0 0 0 0
0.61005843 0.031274013 0.52352983 0 0 0 0 0
0.61005855 0.031287335 0.52352983 0 0 0 0 0
0.61009061 0.034531705 0.5235306 0 0 0 0 0
0.61009139 0.034611128 0.5235306 0 0 0 0 0
0.61012262 0.037774742 0.52353132 0 0 0 0 0
0.61012524 0.038042769 0.52353138 0 0 0 0 0
0.61014944 0.040491775 0.52353197 0 0 0 0 0
0.61014783 0.040327385 0.52353191 0 0 0 0 0
0.61017042 0.042618003 0.52353245 0 0 0 0 0
0.61017329 0.042908471 0.52353251 0 0 0 0 0
0.61019665 0.045275077 0.52353305 0 0 0 0 0
0.61020952 0.046574321 0.52353334 0 0 0 0 0
0.61023915 0.049575731 0.52353406 0 0 0 0 0
0.61024028 0.049691178 0.52353406 0 0 0 0 0
0.61027187 0.052893013 0.52353477 0 0 0 0 0
0.61026359 0.052051865 0.5235346 0 0 0 0 0
0.61029869 0.055607758 0.52353543 0 0 0 0 0
0.61028731 0.054454714 0.52353513 0 0 0 0 0
0.61032075 0.057841718 0.52353591 0 0 0 0 0
0.61032295 0.058064912 0.52353597 0 0 0 0 0
0.61034656 0.06045717 0.5235365 0 0 0 0 0
0.61035782 0.061593156 0.5235368 0 0 0 0 0
0.61038995 0.064847611 0.52353752 0 0 0 0 0
0.61038995 0.064847551 0.52353752 0 0 0 0 0
0.61041206 0.067092165 0.52353805 0 0 0 0 0
0.61041409 0.067293599 0.52353811 0 0 0 0 0
0.61043596 0.069507271 0.52353859 0 0 0 0 0
0.61043811 0.069727354 0.52353865 0 0 0 0 0
0.61047161 0.073123194 0.52353942 0 0 0 0 0
0.610475 0.073463611 0.52353948 0 0 0 0 0
0.61050898 0.076902583 0.52354026 0 0 0 0 0
0.6105479 0.08084631 0.52354115 0 0 0 0 0
0.61053061 0.079098508 0.52354079 0 0 0 0 0
0.61056215 0.082288876 0.52354151 0 0 0 0 0
0.61055535 0.081601977 0.52354133 0 0 0 0 0
0.6105864 0.084749661 0.52354205 0 0 0 0 0
0.61058778 0.084887549 0.52354211 0 0 0 0 0
0.61061227 0.087366365 0.52354264 0 0 0 0 0
0.61062378 0.088533752 0.52354294 0 0 0 0 0
0.61065966 0.092167698 0.52354378 0 0 0 0 0
0.61068159 0.0943904 0.52354425 0 0 0 0 0
0.61071259 0.097525991 0.52354497 0 0 0 0 0
0.61070418 0.096672855 0.52354479 0 0 0 0 0
0.6107378 0.10008061 0.52354556 0 0 0 0 0
0.61073869 0.10017285 0.52354562 0 0 0 0 0
0.61077458 0.10380548 0.52354646 0 0 0 0 0
0.61079985 0.1063626 0.52354699 0 0 0 0 0
0.61082381 0.10879312 0.52354759 0 0 0 0 0
0.61086428 0.1128912 0.52354848 0 0 0 0 0
0.61085492 0.11194165 0.52354831 0 0 0 0 0
0.61089057 0.11555078 0.52354914 0 0 0 0 0
0.61089116 0.11561263 0.52354914 0 0 0 0 0
0.61091644 0.11817283 0.52354974 0 0 0 0 0
0.61094278 0.12083912 0.52355033 0 0 0 0 0
0.61097527 0.12413299 0.52355105 0 0 0 0 0
0.6110087 0.12751578 0.52355182 0 0 0 0 0
0.61103106 0.12978035 0.52355236 0 0 0 0 0
0.6110397 0.13065816 0.52355254 0 0 0 0 0
0.61106336 0.13305421 0.52355313 0 0 0 0 0
0.61109382 0.1361386 0.52355379 0 0 0 0 0
0.61112797 0.13959542 0.52355462 0 0 0 0 0
0.61115843 0.14268367 0.52355534 0 0 0 0 0
0.6111809 0.14496036 0.52355582 0 0 0 0 0
0.61121291 0.14820129 0.52355659 0 0 0 0 0
0.61124641 0.15159079 0.52355736 0 0 0 0 0
0.61128092 0.15508638 0.52355814 0 0 0 0 0
0.61130518 0.15754287 0.52355874 0 0 0 0 0
0.61133045 0.16010183 0.52355927 0 0 0 0 0
0.61136365 0.16346587 0.52356005 0 0 0 0 0
0.61139673 0.16681471 0.52356082 0 0 0 0 0
0.61141819 0.16899034 0.5235613 0 0 0 0 0
0.6114502 0.17223352 0.52356207 0 0 0 0 0
0.61148292 0.17554429 0.52356285 0 0 0 0 0
0.61151588 0.17888515 0.52356356 0 0 0 0 0
0.61153662 0.1809845 0.52356404 0 0 0 0 0
0.61156768 0.18413174 0.52356482 0 0 0 0 0
0.61159688 0.18708768 0.52356547 0 0 0 0 0
0.61162221 0.18965703 0.52356607 0 0 0 0 0
0.61164099 0.19155517 0.52356648 0 0 0 0 0
0.609918 0.01705011 0.52352661 0 0 0 0 0
0.60993719 0.01899644 0.52352703 0 0 0 0 0
0.60993493 0.018767036 0.52352697 0 0 0 0 0
0.60996073 0.021376371 0.52352756 0 0 0 0 0
0.60996151 0.021456413 0.52352762 0 0 0 0 0
0.6099841 0.023742616 0.52352816 0 0 0 0 0
0.60997748 0.023075283 0.52352798 0 0 0 0 0
0.61000091 0.025446929 0.52352852 0 0 0 0 0
0.60999709 0.025061771 0.52352846 0 0 0 0 0
0.61002827 0.028220363 0.52352917 0 0 0 0 0
0.61003083 0.028481267 0.52352923 0 0 0 0 0
0.61005706 0.031134635 0.52352983 0 0 0 0 0
0.61006385 0.031824686 0.52352995 0 0 0 0 0
0.61009395 0.034872055 0.52353066 0 0 0 0 0
0.61009598 0.035074465 0.52353072 0 0 0 0 0
0.61009443 0.034918644 0.52353066 0 0 0 0 0
0.61011815 0.037321188 0.52353126 0 0 0 0 0
0.61011863 0.037368096 0.52353126 0 0 0 0 0
0.61014009 0.039544135 0.52353173 0 0 0 0 0
0.61014348 0.039890423 0.52353179 0 0 0 0 0
0.61017597 0.043179035 0.52353257 0 0 0 0 0
0.61017907 0.043494068 0.52353263 0 0 0 0 0
0.61020589 0.046207335 0.52353328 0 0 0 0 0
0.61021239 0.046866447 0.5235334 0 0 0 0 0
0.6102435 0.050017159 0.52353412 0 0 0 0 0
0.61023623 0.04928207 0.52353394 0 0 0 0 0
0.61026692 0.052392006 0.52353466 0 0 0 0 0
0.6102578 0.051466361 0.52353448 0 0 0 0 0
0.61029404 0.055134661 0.52353531 0 0 0 0 0
0.61029059 0.054783657 0.52353525 0 0 0 0 0
0.6103245 0.058221165 0.52353603 0 0 0 0 0
0.61032754 0.058529716 0.52353609 0 0 0 0 0
0.61036152 0.061973013 0.52353686 0 0 0 0 0
0.61036283 0.062105812 0.52353692 0 0 0 0 0
0.61038458 0.064306691 0.5235374 0 0 0 0 0
0.61038566 0.064412571 0.5235374 0 0 0 0 0
0.61040616 0.066489339 0.52353787 0 0 0 0 0
0.61040884 0.066766039 0.52353793 0 0 0 0 0
0.61044264 0.070188835 0.52353877 0 0 0 0 0
0.61044097 0.070014849 0.52353871 0 0 0 0 0
0.6104725 0.073208511 0.52353942 0 0 0 0 0
0.610479 0.073870562 0.5235396 0 0 0 0 0
0.61051124 0.077134348 0.52354032 0 0 0 0 0
0.61050355 0.076358058 0.52354014 0 0 0 0 0
0.61053509 0.079546884 0.52354085 0 0 0 0 0
0.61052591 0.078618594 0.52354068 0 0 0 0 0
0.61055791 0.081863783 0.52354139 0 0 0 0 0
0.61055988 0.082060486 0.52354145 0 0 0 0 0
0.61059123 0.085233413 0.52354217 0 0 0 0 0
0.61059415 0.085530572 0.52354223 0 0 0 0 0
0.61062741 0.088902444 0.523543 0 0 0 0 0
0.61063099 0.08926446 0.52354312 0 0 0 0 0
0.61065048 0.091237359 0.52354354 0 0 0 0 0
0.61065179 0.091366932 0.5235436 0 0 0 0 0
0.61067408 0.093629628 0.52354407 0 0 0 0 0
0.6106782 0.094046399 0.52354419 0 0 0 0 0
0.61070943 0.097209819 0.52354491 0 0 0 0 0
0.61071068 0.097333536 0.52354497 0 0 0 0 0
0.61074138 0.10044053 0.52354568 0 0 0 0 0
0.61074477 0.10078819 0.52354574 0 0 0 0 0
0.6107679 0.10313173 0.52354628 0 0 0 0 0
0.61077052 0.10339201 0.52354634 0 0 0 0 0
0.61079186 0.10555756 0.52354681 0 0 0 0 0
0.61079735 0.10611382 0.52354693 0 0 0 0 0
0.61082506 0.10891974 0.52354759 0 0 0 0 0
0.61082727 0.10914316 0.52354765 0 0 0 0 0
0.61085981 0.11243781 0.52354842 0 0 0 0 0
0.61086017 0.11247133 0.52354842 0 0 0 0 0
0.61088353 0.11484162 0.52354896 0 0 0 0 0
0.61089218 0.11571752 0.52354914 0 0 0 0 0
0.61091524 0.11805326 0.52354968 0 0 0 0 0
0.61094284 0.12084685 0.52355033 0 0 0 0 0
0.61094761 0.12133047 0.52355045 0 0 0 0 0
0.61097693 0.12430214 0.52355111 0 0 0 0 0
0.61097968 0.12457877 0.52355117 0 0 0 0 0
0.61100978 0.12762593 0.52355188 0 0 0 0 0
0.61100858 0.12750761 0.52355182 0 0 0 0 0
0.61103219 0.12989861 0.52355242 0 0 0 0 0
0.6110639 0.13310985 0.52355313 0 0 0 0 0
0.61106873 0.13359801 0.52355325 0 0 0 0 0
0.61109537 0.13629688 0.52355385 0 0 0 0 0
0.61110115 0.13687859 0.52355397 0 0 0 0 0
0.61112797 0.13959423 0.52355462 0 0 0 0 0
0.61112863 0.13966163 0.52355462 0 0 0 0 0
0.61115342 0.14217445 0.52355522 0 0 0 0 0
0.61114901 0.14172724 0.5235551 0 0 0 0 0
0.61118132 0.14500225 0.52355582 0 0 0 0 0
0.61121857 0.14877361 0.52355671 0 0 0 0 0
0.61124784 0.15173668 0.52355736 0 0 0 0 0
0.61124742 0.15169238 0.52355736 0 0 0 0 0
0.61127162 0.15414584 0.52355796 0 0 0 0 0
0.61126792 0.15377103 0.52355784 0 0 0 0 0
0.6112951 0.156525 0.5235585 0 0 0 0 0
0.61129689 0.15670645 0.5235585 0 0 0 0 0
0.61133367 0.16042979 0.52355939 0 0 0 0 0
0.61136609 0.1637136 0.52356011 0 0 0 0 0
0.61138946 0.16608226 0.52356064 0 0 0 0 0
0.61141652 0.16882159 0.5235613 0 0 0 0 0
0.61141998 0.16917154 0.52356136 0 0 0 0 0
0.61144239 0.17144033 0.52356189 0 0 0 0 0
0.61145109 0.17232448 0.52356207 0 0 0 0 0
0.6114862 0.17588118 0.52356291 0 0 0 0 0
0.61151063 0.17835107 0.52356344 0 0 0 0 0
0.61149669 0.17694326 0.52356315 0 0 0 0 0
0.61153758 0.18108484 0.5235641 0 0 0 0 0
0.6115703 0.1843954 0.52356488 0 0 0 0 0
0.61157203 0.18457422 0.52356488 0 0 0 0 0
0.61159694 0.18709628 0.52356547 0 0 0 0 0
0.61161494 0.18891674 0.52356589 0 0 0 0 0
0.6116358 0.19103061 0.52356637 0 0 0 0 0
0.61163741 0.191194 0.52356642 0 0 0 0 0
0.60991216 0.01645717 0.52352649 0 0 0 0 0
0.60993999 0.019277103 0.52352709 0 0 0 0 0
0.60993481 0.018753789 0.52352697 0 0 0 0 0
0.60995281 0.020575695 0.52352738 0 0 0 0 0
0.60995507 0.020802677 0.52352744 0 0 0 0 0
0.6099481 0.020099327 0.52352732 0 0 0 0 0
0.60993922 0.019198895 0.52352709 0 0 0 0 0
0.60997045 0.022363909 0.5235278 0 0 0 0 0
0.60997486 0.022808254 0.52352792 0 0 0 0 0
0.60997617 0.022943929 0.52352792 0 0 0 0 0
0.61000049 0.025406413 0.52352852 0 0 0 0 0
0.61000317 0.025675423 0.52352858 0 0 0 0 0
0.61000663 0.026027806 0.52352864 0 0 0 0 0
0.60999173 0.024519317 0.52352828 0 0 0 0 0
0.61003238 0.028634876 0.52352923 0 0 0 0 0
0.61003476 0.028876692 0.52352929 0 0 0 0 0
0.61003655 0.029058136 0.52352935 0 0 0 0 0
0.61002713 0.028106168 0.52352911 0 0 0 0 0
0.61003089 0.028483115 0.52352923 0 0 0 0 0
0.61006588 0.032029696 0.52353001 0 0 0 0 0
0.61006266 0.031703353 0.52352995 0 0 0 0 0
0.61006033 0.031468645 0.52352989 0 0 0 0 0
0.61006355 0.031795233 0.52352995 0 0 0 0 0
0.61006594 0.032032222 0.52353001 0 0 0 0 0
0.61008734 0.034198962 0.52353054 0 0 0 0 0
0.61008525 0.033987977 0.52353048 0 0 0 0 0
0.61008501 0.033965677 0.52353048 0 0 0 0 0
0.61009943 0.035425082 0.52353078 0 0 0 0 0
0.61009002 0.034473099 0.5235306 0 0 0 0 0
0.61010838 0.036330514 0.52353102 0 0 0 0 0
0.61011654 0.037159413 0.5235312 0 0 0 0 0
0.61011952 0.037459813 0.52353126 0 0 0 0 0
0.61012071 0.037579633 0.52353132 0 0 0 0 0
0.61011863 0.03736911 0.52353126 0 0 0 0 0
0.610147 0.040245257 0.52353191 0 0 0 0 0
0.61014909 0.040453367 0.52353197 0 0 0 0 0
0.61015141 0.040691391 0.52353197 0 0 0 0 0
0.61014783 0.040329233 0.52353191 0 0 0 0 0
0.61015248 0.040798604 0.52353203 0 0 0 0 0
0.61018056 0.043642029 0.52353269 0 0 0 0 0
0.61018389 0.043978073 0.52353275 0 0 0 0 0
0.61018658 0.044249542 0.52353281 0 0 0 0 0
0.61017382 0.04296159 0.52353251 0 0 0 0 0
0.61018044 0.043628585 0.52353269 0 0 0 0 0
0.61021429 0.04706239 0.52353346 0 0 0 0 0
0.61020672 0.046292871 0.52353328 0 0 0 0 0
0.61020404 0.046022575 0.52353323 0 0 0 0 0
0.61021483 0.047111861 0.52353346 0 0 0 0 0
0.61020666 0.046289396 0.52353328 0 0 0 0 0
0.61023581 0.049241688 0.52353394 0 0 0 0 0
0.61022979 0.048630934 0.52353382 0 0 0 0 0
0.61023551 0.049207572 0.52353394 0 0 0 0 0
0.61024159 0.049825162 0.52353412 0 0 0 0 0
0.61022758 0.04840805 0.52353376 0 0 0 0 0
0.61026037 0.051723674 0.52353454 0 0 0 0 0
0.6102643 0.052124631 0.5235346 0 0 0 0 0
0.61026877 0.052580025 0.52353472 0 0 0 0 0
0.61026067 0.05175662 0.52353454 0 0 0 0 0
0.61029637 0.05537324 0.52353537 0 0 0 0 0
0.61029923 0.055660713 0.52353543 0 0 0 0 0
0.61030185 0.055929683 0.52353549 0 0 0 0 0
0.61029899 0.055635922 0.52353543 0 0 0 0 0
0.6103031 0.056054678 0.52353549 0 0 0 0 0
0.61033064 0.058842745 0.52353615 0 0 0 0 0
0.61033565 0.059352048 0.52353626 0 0 0 0 0
0.61032498 0.058271863 0.52353603 0 0 0 0 0
0.61033261 0.059041314 0.52353621 0 0 0 0 0
0.61033273 0.05905579 0.52353621 0 0 0 0 0
0.6103633 0.062149424 0.52353692 0 0 0 0 0
0.61035788 0.06160209 0.5235368 0 0 0 0 0
0.61035222 0.061029896 0.52353662 0 0 0 0 0
0.61035842 0.061657764 0.5235368 0 0 0 0 0
0.61038107 0.06394773 0.52353734 0 0 0 0 0
0.61038661 0.064514622 0.52353746 0 0 0 0 0
0.61038435 0.064282268 0.5235374 0 0 0 0 0
0.61038941 0.064798295 0.52353752 0 0 0 0 0
0.61042023 0.067917176 0.52353823 0 0 0 0 0
0.61041427 0.067312971 0.52353811 0 0 0 0 0
0.61041993 0.06788744 0.52353823 0 0 0 0 0
0.61041737 0.067628212 0.52353817 0 0 0 0 0
0.61041921 0.06781283 0.52353817 0 0 0 0 0
0.61044645 0.07057254 0.52353883 0 0 0 0 0
0.61044902 0.070830069 0.52353889 0 0 0 0 0
0.61044258 0.070180438 0.52353877 0 0 0 0 0
0.61044896 0.070828974 0.52353889 0 0 0 0 0
0.61045712 0.071654215 0.52353907 0 0 0 0 0
0.61048174 0.074147664 0.52353966 0 0 0 0 0
0.61047173 0.073129706 0.52353942 0 0 0 0 0
0.61047041 0.072997481 0.52353936 0 0 0 0 0
0.61047637 0.073602997 0.52353954 0 0 0 0 0
0.61047721 0.073688462 0.52353954 0 0 0 0 0
0.61050391 0.076392442 0.52354014 0 0 0 0 0
0.61049694 0.075688526 0.52354002 0 0 0 0 0
0.61050105 0.076100767 0.52354008 0 0 0 0 0
0.6105029 0.076286986 0.52354014 0 0 0 0 0
0.61050242 0.076239198 0.52354014 0 0 0 0 0
0.61053187 0.079223558 0.52354079 0 0 0 0 0
0.61053556 0.079598173 0.52354091 0 0 0 0 0
0.61053342 0.079380527 0.52354085 0 0 0 0 0
0.61053538 0.079577982 0.52354091 0 0 0 0 0
0.61057109 0.083195433 0.52354169 0 0 0 0 0
0.61056417 0.082498044 0.52354157 0 0 0 0 0
0.610569 0.082983792 0.52354169 0 0 0 0 0
0.61056936 0.083020292 0.52354169 0 0 0 0 0
0.61059767 0.08588542 0.52354234 0 0 0 0 0
0.61059541 0.085656196 0.52354228 0 0 0 0 0
0.61059386 0.085500978 0.52354223 0 0 0 0 0
0.6105926 0.085376568 0.52354223 0 0 0 0 0
0.61062223 0.088372484 0.52354288 0 0 0 0 0
0.61061865 0.088014752 0.52354282 0 0 0 0 0
0.6106168 0.087827064 0.52354276 0 0 0 0 0
0.61061752 0.087897211 0.52354282 0 0 0 0 0
0.61061966 0.088113807 0.52354282 0 0 0 0 0
0.61064601 0.090785533 0.52354348 0 0 0 0 0
0.61064827 0.091011971 0.52354348 0 0 0 0 0
0.61065167 0.09135621 0.5235436 0 0 0 0 0
0.61065316 0.091507226 0.5235436 0 0 0 0 0
0.61065459 0.091651842 0.52354366 0 0 0 0 0
0.61068231 0.09446197 0.52354431 0 0 0 0 0
0.61068571 0.094803207 0.52354437 0 0 0 0 0
0.6106863 0.094864719 0.52354437 0 0 0 0 0
0.61068904 0.095139831 0.52354443 0 0 0 0 0
0.61068547 0.094779111 0.52354437 0 0 0 0 0
0.61072224 0.098504603 0.52354521 0 0 0 0 0
0.61071551 0.097821198 0.52354509 0 0 0 0 0
0.61071134 0.097400211 0.52354497 0 0 0 0 0
0.61072004 0.098281004 0.52354515 0 0 0 0 0
0.61074972 0.10128591 0.52354586 0 0 0 0 0
0.61074203 0.10050896 0.52354568 0 0 0 0 0
0.61073792 0.10009359 0.52354556 0 0 0 0 0
0.61073714 0.10001494 0.52354556 0 0 0 0 0
0.61074126 0.10043127 0.52354568 0 0 0 0 0
0.61077303 0.10364966 0.5235464 0 0 0 0 0
0.6107654 0.10287768 0.52354622 0 0 0 0 0
0.6107688 0.10321975 0.52354628 0 0 0 0 0
0.61077023 0.10336483 0.52354634 0 0 0 0 0
0.610771 0.10344107 0.52354634 0 0 0 0 0
0.61078769 0.10513195 0.52354676 0 0 0 0 0
0.61079824 0.10620219 0.52354699 0 0 0 0 0
0.61080396 0.1067789 0.52354711 0 0 0 0 0
0.61080486 0.1068731 0.52354711 0 0 0 0 0
0.61083299 0.10972226 0.52354777 0 0 0 0 0
0.61083341 0.10976562 0.52354777 0 0 0 0 0
0.61083597 0.11002459 0.52354783 0 0 0 0 0
0.6108315 0.10956744 0.52354777 0 0 0 0 0
0.61086124 0.11258143 0.52354842 0 0 0 0 0
0.61085576 0.11202786 0.52354831 0 0 0 0 0
0.61086214 0.11267045 0.52354848 0 0 0 0 0
0.61089045 0.11554077 0.52354914 0 0 0 0 0
0.61088514 0.11500078 0.52354896 0 0 0 0 0
0.61089009 0.11550671 0.52354908 0 0 0 0 0
0.61088699 0.1151907 0.52354902 0 0 0 0 0
0.61089385 0.11588386 0.5235492 0 0 0 0 0
0.61091489 0.11801805 0.52354968 0 0 0 0 0
0.61091667 0.11819651 0.52354974 0 0 0 0 0
0.61092204 0.11874273 0.52354985 0 0 0 0 0
0.61092395 0.11893202 0.52354991 0 0 0 0 0
0.6109255 0.11909173 0.52354991 0 0 0 0 0
0.61095273 0.12184637 0.52355057 0 0 0 0 0
0.61095142 0.12171364 0.52355051 0 0 0 0 0
0.61095619 0.12219674 0.52355063 0 0 0 0 0
0.61095172 0.12174515 0.52355051 0 0 0 0 0
0.61098039 0.12465026 0.52355117 0 0 0 0 0
0.61097497 0.12409864 0.52355105 0 0 0 0 0
0.61097968 0.12457744 0.52355117 0 0 0 0 0
0.61097699 0.12430762 0.52355111 0 0 0 0 0
0.61100322 0.12696299 0.5235517 0 0 0 0 0
0.61100489 0.12713297 0.52355176 0 0 0 0 0
0.6110065 0.12729613 0.52355182 0 0 0 0 0
0.61104149 0.13083911 0.5235526 0 0 0 0 0
0.61103368 0.130046 0.52355242 0 0 0 0 0
0.61104333 0.13102761 0.52355266 0 0 0 0 0
0.61103147 0.12982145 0.52355236 0 0 0 0 0
0.61104363 0.13105567 0.52355266 0 0 0 0 0
0.61106682 0.13340496 0.52355319 0 0 0 0 0
0.61106908 0.13363045 0.52355325 0 0 0 0 0
0.61106992 0.13371913 0.52355325 0 0 0 0 0
0.61106861 0.13358641 0.52355325 0 0 0 0 0
0.61106139 0.13285521 0.52355307 0 0 0 0 0
0.6111002 0.13678205 0.52355397 0 0 0 0 0
0.61109304 0.13605669 0.52355379 0 0 0 0 0
0.61109549 0.13630463 0.52355385 0 0 0 0 0
0.61112285 0.13907546 0.5235545 0 0 0 0 0
0.61112249 0.13904123 0.5235545 0 0 0 0 0
0.61112654 0.13945371 0.52355456 0 0 0 0 0
0.61113 0.13980082 0.52355468 0 0 0 0 0
0.61115259 0.14209028 0.52355516 0 0 0 0 0
0.61115688 0.14252733 0.52355528 0 0 0 0 0
0.61115104 0.14193599 0.52355516 0 0 0 0 0
0.61116278 0.1431243 0.5235554 0 0 0 0 0
0.61119282 0.14616467 0.52355611 0 0 0 0 0
0.6111865 0.14552684 0.52355593 0 0 0 0 0
0.61118758 0.14563687 0.52355599 0 0 0 0 0
0.61118388 0.14526203 0.52355587 0 0 0 0 0
0.6111868 0.14555752 0.52355599 0 0 0 0 0
0.61118317 0.14518757 0.52355587 0 0 0 0 0
0.61121053 0.14795886 0.52355653 0 0 0 0 0
0.61121726 0.14864044 0.52355665 0 0 0 0 0
0.61121142 0.14804694 0.52355653 0 0 0 0 0
0.61121273 0.14818218 0.52355659 0 0 0 0 0
0.61121547 0.14845857 0.52355665 0 0 0 0 0
0.61124009 0.15095024 0.52355719 0 0 0 0 0
0.61124146 0.1510925 0.52355725 0 0 0 0 0
0.61124736 0.15168832 0.52355736 0 0 0 0 0
0.61124796 0.15175073 0.52355736 0 0 0 0 0
0.61126858 0.15383574 0.52355784 0 0 0 0 0
0.61127305 0.15429305 0.52355796 0 0 0 0 0
0.61127824 0.15481862 0.52355808 0 0 0 0 0
0.61127508 0.1544971 0.52355802 0 0 0 0 0
0.61130339 0.1573606 0.52355868 0 0 0 0 0
0.61130947 0.15797646 0.5235588 0 0 0 0 0
0.61130387 0.15741436 0.52355868 0 0 0 0 0
0.61130041 0.15706079 0.52355862 0 0 0 0 0
0.6113376 0.1608299 0.52355945 0 0 0 0 0
0.61133403 0.16046752 0.52355939 0 0 0 0 0
0.61132723 0.15977618 0.52355921 0 0 0 0 0
0.61134064 0.16113496 0.52355951 0 0 0 0 0
0.61136025 0.16312367 0.52355999 0 0 0 0 0
0.6113618 0.16328238 0.52356005 0 0 0 0 0
0.61136717 0.16382211 0.52356017 0 0 0 0 0
0.61136991 0.16409852 0.52356023 0 0 0 0 0
0.61138964 0.16609915 0.52356064 0 0 0 0 0
0.61139512 0.16665141 0.52356076 0 0 0 0 0
0.61139232 0.16636905 0.5235607 0 0 0 0 0
0.61139536 0.16668107 0.52356082 0 0 0 0 0
0.61142427 0.16960704 0.52356148 0 0 0 0 0
0.6114282 0.17000233 0.52356154 0 0 0 0 0
0.61142385 0.16956589 0.52356148 0 0 0 0 0
0.61142123 0.16929707 0.52356142 0 0 0 0 0
0.61145639 0.17286086 0.52356219 0 0 0 0 0
0.61145431 0.17265108 0.52356219 0 0 0 0 0
0.6114558 0.17280138 0.52356219 0 0 0 0 0
0.6114397 0.17117116 0.52356184 0 0 0 0 0
0.61145204 0.1724195 0.52356213 0 0 0 0 0
0.61148232 0.17548403 0.52356279 0 0 0 0 0
0.61147928 0.17517622 0.52356273 0 0 0 0 0
0.61148041 0.17529425 0.52356279 0 0 0 0 0
0.61149395 0.17666228 0.52356309 0 0 0 0 0
0.61150831 0.17811742 0.52356339 0 0 0 0 0
0.61151737 0.17903265 0.52356362 0 0 0 0 0
0.61150575 0.17785582 0.52356333 0 0 0 0 0
0.61151159 0.17844841 0.5235635 0 0 0 0 0
0.61150575 0.17785887 0.52356333 0 0 0 0 0
0.61154133 0.18146122 0.52356416 0 0 0 0 0
0.61154318 0.1816522 0.52356422 0 0 0 0 0
0.6115371 0.18103458 0.5235641 0 0 0 0 0
0.61154044 0.18137366 0.52356416 0 0 0 0 0
0.61154962 0.18230337 0.5235644 0 0 0 0 0
0.61157554 0.18492718 0.52356499 0 0 0 0 0
0.6115672 0.1840836 0.52356476 0 0 0 0 0
0.61156821 0.18418708 0.52356482 0 0 0 0 0
0.61157286 0.18465714 0.52356493 0 0 0 0 0
0.61159807 0.18721145 0.52356547 0 0 0 0 0
0.61159569 0.18696806 0.52356541 0 0 0 0 0
0.61160487 0.18789801 0.52356565 0 0 0 0 0
0.61158943 0.18633407 0.52356529 0 0 0 0 0
0.61160314 0.18772244 0.52356559 0 0 0 0 0
0.61162102 0.18953606 0.52356601 0 0 0 0 0
0.61162317 0.18974802 0.52356607 0 0 0 0 0
0.61162168 0.18960084 0.52356601 0 0 0 0 0
0.61164427 0.19188881 0.52356654 0 0 0 0 0
0.61164695 0.19216195 0.5235666 0 0 0 0 0
0.61164606 0.1920684 0.5235666 0 0 0 0 0
0.61164415 0.19187796 0.52356654 0 0 0 0 0
0.60991365 0.01660762 0.52352649 0 0 0 0 0
0.60994524 0.019809775 0.5235272 0 0 0 0 0
0.60994154 0.019434988 0.52352715 0 0 0 0 0
0.60998642 0.023978695 0.52352816 0 0 0 0 0
0.60997474 0.022797748 0.52352792 0 0 0 0 0
0.60997748 0.023076162 0.52352798 0 0 0 0 0
0.60997629 0.022953026 0.52352792 0 0 0 0 0
0.61000597 0.02595982 0.52352864 0 0 0 0 0
0.61001217 0.026591264 0.52352875 0 0 0 0 0
0.61000037 0.025391221 0.52352852 0 0 0 0 0
0.6100018 0.025540225 0.52352852 0 0 0 0 0
0.6100291 0.028303139 0.52352917 0 0 0 0 0
0.61003286 0.028683119 0.52352923 0 0 0 0 0
0.61002338 0.027721025 0.52352905 0 0 0 0 0
0.61002743 0.028134637 0.52352911 0 0 0 0 0
0.61004549 0.029964849 0.52352953 0 0 0 0 0
0.61005497 0.030925624 0.52352977 0 0 0 0 0
0.61005712 0.031143464 0.52352983 0 0 0 0 0
0.61006063 0.031494677 0.52352989 0 0 0 0 0
0.61009014 0.03448604 0.5235306 0 0 0 0 0
0.61009246 0.034717873 0.52353066 0 0 0 0 0
0.61009634 0.035109691 0.52353072 0 0 0 0 0
0.61012816 0.038334422 0.52353144 0 0 0 0 0
0.61011988 0.03749986 0.52353126 0 0 0 0 0
0.61012715 0.038233139 0.52353144 0 0 0 0 0
0.61011869 0.037379473 0.52353126 0 0 0 0 0
0.61015236 0.040789858 0.52353203 0 0 0 0 0
0.61016047 0.04160687 0.52353221 0 0 0 0 0
0.61015052 0.04059805 0.52353197 0 0 0 0 0
0.61014497 0.040038876 0.52353185 0 0 0 0 0
0.61017716 0.043295965 0.52353257 0 0 0 0 0
0.61017662 0.043242715 0.52353257 0 0 0 0 0
0.61017478 0.043057416 0.52353257 0 0 0 0 0
0.61018091 0.043680068 0.52353269 0 0 0 0 0
0.61020571 0.046189807 0.52353328 0 0 0 0 0
0.61020887 0.046511397 0.52353334 0 0 0 0 0
0.61021078 0.046703458 0.5235334 0 0 0 0 0
0.61023945 0.049605466 0.52353406 0 0 0 0 0
0.61024213 0.049878459 0.52353412 0 0 0 0 0
0.61023575 0.049231313 0.52353394 0 0 0 0 0
0.61027974 0.053689323 0.52353495 0 0 0 0 0
0.6102705 0.052751776 0.52353477 0 0 0 0 0
0.6102668 0.052380472 0.52353466 0 0 0 0 0
0.61025769 0.051454127 0.52353448 0 0 0 0 0
0.61030394 0.05613669 0.52353555 0 0 0 0 0
0.61029786 0.055524349 0.52353537 0 0 0 0 0
0.61029106 0.054836892 0.52353525 0 0 0 0 0
0.6102947 0.055205442 0.52353531 0 0 0 0 0
0.61032361 0.058132425 0.52353597 0 0 0 0 0
0.61032128 0.05789433 0.52353591 0 0 0 0 0
0.61032879 0.05865312 0.52353609 0 0 0 0 0
0.61035627 0.061436769 0.52353674 0 0 0 0 0
0.61035931 0.061745655 0.5235368 0 0 0 0 0
0.61036402 0.062223297 0.52353692 0 0 0 0 0
0.61039078 0.064936459 0.52353752 0 0 0 0 0
0.61038971 0.064826757 0.52353752 0 0 0 0 0
0.61038816 0.064671278 0.52353746 0 0 0 0 0
0.61043066 0.068973415 0.52353847 0 0 0 0 0
0.61041582 0.0674714 0.52353811 0 0 0 0 0
0.6104126 0.067141309 0.52353805 0 0 0 0 0
0.61041051 0.06693399 0.52353799 0 0 0 0 0
0.61044347 0.070273742 0.52353877 0 0 0 0 0
0.61043739 0.069653571 0.52353865 0 0 0 0 0
0.61044139 0.070061535 0.52353871 0 0 0 0 0
0.61044562 0.070490949 0.52353883 0 0 0 0 0
0.61046058 0.072005562 0.52353919 0 0 0 0 0
0.61047393 0.073353544 0.52353948 0 0 0 0 0
0.61047167 0.07312341 0.52353942 0 0 0 0 0
0.61048126 0.074098989 0.52353966 0 0 0 0 0
0.61050558 0.076559663 0.5235402 0 0 0 0 0
0.61050987 0.076994017 0.52354032 0 0 0 0 0
0.61050498 0.076498419 0.5235402 0 0 0 0 0
0.61053997 0.080042653 0.52354097 0 0 0 0 0
0.61053526 0.079565242 0.52354091 0 0 0 0 0
0.61052537 0.078566447 0.52354068 0 0 0 0 0
0.61056334 0.082412377 0.52354151 0 0 0 0 0
0.61056048 0.082119502 0.52354145 0 0 0 0 0
0.61056328 0.08240664 0.52354151 0 0 0 0 0
0.61058617 0.084720239 0.52354205 0 0 0 0 0
0.6105895 0.08506237 0.52354217 0 0 0 0 0
0.6105932 0.085436486 0.52354223 0 0 0 0 0
0.61059737 0.085856989 0.52354234 0 0 0 0 0
0.61060786 0.086921945 0.52354258 0 0 0 0 0
0.6106267 0.088825494 0.523543 0 0 0 0 0
0.61062348 0.088499799 0.52354294 0 0 0 0 0
0.61062956 0.089117467 0.52354306 0 0 0 0 0
0.61065716 0.0919149 0.52354372 0 0 0 0 0
0.61065131 0.091319069 0.5235436 0 0 0 0 0
0.61065048 0.091239512 0.52354354 0 0 0 0 0
0.61068112 0.094339713 0.52354425 0 0 0 0 0
0.61067975 0.094202749 0.52354425 0 0 0 0 0
0.61067957 0.094183467 0.52354425 0 0 0 0 0
0.61070442 0.096697718 0.52354479 0 0 0 0 0
0.61070985 0.097247824 0.52354491 0 0 0 0 0
0.61071616 0.097886167 0.52354509 0 0 0 0 0
0.6107353 0.099824838 0.5235455 0 0 0 0 0
0.61074603 0.10091418 0.52354574 0 0 0 0 0
0.61074942 0.10125546 0.52354586 0 0 0 0 0
0.61074251 0.10055459 0.52354568 0 0 0 0 0
0.61077952 0.10430819 0.52354652 0 0 0 0 0
0.61076915 0.10325673 0.52354628 0 0 0 0 0
0.61077261 0.10360651 0.5235464 0 0 0 0 0
0.61075807 0.10213468 0.52354604 0 0 0 0 0
0.61080605 0.10699297 0.52354717 0 0 0 0 0
0.61079496 0.10587253 0.52354687 0 0 0 0 0
0.61079884 0.10626462 0.52354699 0 0 0 0 0
0.61082858 0.1092765 0.52354765 0 0 0 0 0
0.61082858 0.10927347 0.52354765 0 0 0 0 0
0.61083144 0.10956555 0.52354777 0 0 0 0 0
0.61085564 0.11201775 0.52354831 0 0 0 0 0
0.61086285 0.11274546 0.52354848 0 0 0 0 0
0.61086863 0.11333383 0.5235486 0 0 0 0 0
0.61088932 0.11542782 0.52354908 0 0 0 0 0
0.61089331 0.11582784 0.5235492 0 0 0 0 0
0.61089402 0.11590083 0.5235492 0 0 0 0 0
0.61089379 0.11587688 0.5235492 0 0 0 0 0
0.61092657 0.11919717 0.52354997 0 0 0 0 0
0.61091387 0.11791326 0.52354968 0 0 0 0 0
0.61091977 0.11850833 0.5235498 0 0 0 0 0
0.6109128 0.11780307 0.52354962 0 0 0 0 0
0.61094689 0.1212597 0.52355039 0 0 0 0 0
0.61094719 0.1212858 0.52355045 0 0 0 0 0
0.61094964 0.12153459 0.52355045 0 0 0 0 0
0.61097622 0.124228 0.52355111 0 0 0 0 0
0.61098015 0.12462544 0.52355117 0 0 0 0 0
0.61097968 0.12457996 0.52355117 0 0 0 0 0
0.61100912 0.12755735 0.52355188 0 0 0 0 0
0.61101121 0.12777343 0.52355188 0 0 0 0 0
0.61100227 0.12686604 0.5235517 0 0 0 0 0
0.61104435 0.13112505 0.52355266 0 0 0 0 0
0.61103266 0.12994541 0.52355242 0 0 0 0 0
0.61103469 0.13015079 0.52355248 0 0 0 0 0
0.61103797 0.13048454 0.52355254 0 0 0 0 0
0.61106759 0.13348249 0.52355319 0 0 0 0 0
0.61106354 0.13307032 0.52355313 0 0 0 0 0
0.61107272 0.13400193 0.52355331 0 0 0 0 0
0.61106545 0.13326567 0.52355313 0 0 0 0 0
0.61109602 0.13636252 0.52355385 0 0 0 0 0
0.61109936 0.13670109 0.52355397 0 0 0 0 0
0.61110127 0.13689473 0.52355397 0 0 0 0 0
0.61112672 0.13947113 0.52355456 0 0 0 0 0
0.61113226 0.14003299 0.52355468 0 0 0 0 0
0.61112368 0.13916151 0.5235545 0 0 0 0 0
0.61115897 0.14273332 0.52355534 0 0 0 0 0
0.61115915 0.1427526 0.52355534 0 0 0 0 0
0.61115074 0.14190133 0.52355516 0 0 0 0 0
0.61116606 0.14345285 0.52355552 0 0 0 0 0
0.61118788 0.14566365 0.52355599 0 0 0 0 0
0.61118233 0.14510098 0.52355587 0 0 0 0 0
0.61118799 0.14567384 0.52355599 0 0 0 0 0
0.61119044 0.14592659 0.52355605 0 0 0 0 0
0.61121428 0.1483395 0.52355659 0 0 0 0 0
0.6112197 0.14888839 0.52355671 0 0 0 0 0
0.61122131 0.1490486 0.52355677 0 0 0 0 0
0.61121595 0.14850801 0.52355665 0 0 0 0 0
0.61124742 0.15169515 0.52355736 0 0 0 0 0
0.61125135 0.15209088 0.52355748 0 0 0 0 0
0.61124396 0.15134767 0.52355731 0 0 0 0 0
0.61127579 0.15457091 0.52355802 0 0 0 0 0
0.61127704 0.15469505 0.52355808 0 0 0 0 0
0.61127353 0.15433669 0.52355796 0 0 0 0 0
0.61129934 0.15695314 0.52355856 0 0 0 0 0
0.61130428 0.15745606 0.52355868 0 0 0 0 0
0.61130476 0.15750051 0.52355868 0 0 0 0 0
0.61131936 0.1589822 0.52355903 0 0 0 0 0
0.61133254 0.16031435 0.52355933 0 0 0 0 0
0.61133671 0.16073671 0.52355945 0 0 0 0 0
0.61133581 0.16064617 0.52355939 0 0 0 0 0
0.61136711 0.16381969 0.52356017 0 0 0 0 0
0.61136597 0.16370028 0.52356011 0 0 0 0 0
0.61135846 0.16294432 0.52355993 0 0 0 0 0
0.61136234 0.16333404 0.52356005 0 0 0 0 0
0.61139858 0.16700278 0.52356088 0 0 0 0 0
0.61138898 0.16602993 0.52356064 0 0 0 0 0
0.61139214 0.16635203 0.5235607 0 0 0 0 0
0.6114186 0.16903193 0.52356136 0 0 0 0 0
0.61142176 0.16935535 0.52356142 0 0 0 0 0
0.61142534 0.16971727 0.52356148 0 0 0 0 0
0.61144668 0.17187701 0.52356201 0 0 0 0 0
0.61145842 0.17306554 0.52356225 0 0 0 0 0
0.61145055 0.17227072 0.52356207 0 0 0 0 0
0.61145651 0.17287377 0.52356219 0 0 0 0 0
0.61148536 0.17579596 0.52356291 0 0 0 0 0
0.61148638 0.17589614 0.52356291 0 0 0 0 0
0.61148202 0.17545266 0.52356279 0 0 0 0 0
0.61151886 0.17918409 0.52356368 0 0 0 0 0
0.61150903 0.17819181 0.52356344 0 0 0 0 0
0.61151171 0.17845976 0.5235635 0 0 0 0 0
0.6115151 0.17880417 0.52356356 0 0 0 0 0
0.61154234 0.18156417 0.52356422 0 0 0 0 0
0.61153775 0.18110031 0.5235641 0 0 0 0 0
0.61154556 0.18189344 0.52356428 0 0 0 0 0
0.61156809 0.18417504 0.52356482 0 0 0 0 0
0.61157626 0.1850002 0.52356499 0 0 0 0 0
0.61157477 0.1848512 0.52356493 0 0 0 0 0
0.61159509 0.18690956 0.52356541 0 0 0 0 0
0.61159635 0.18703546 0.52356547 0 0 0 0 0
0.61159658 0.18706083 0.52356547 0 0 0 0 0
0.61160505 0.18791535 0.52356565 0 0 0 0 0
0.61162215 0.18964806 0.52356607 0 0 0 0 0
0.61161929 0.18935972 0.52356601 0 0 0 0 0
0.61162162 0.18959607 0.52356601 0 0 0 0 0
0.61162478 0.18991622 0.52356613 0 0 0 0 0
0.61164552 0.19201267 0.5235666 0 0 0 0 0
0.61163926 0.19138251 0.52356642 0 0 0 0 0
0.61164278 0.19173481 0.52356654 0 0 0 0 0
0.61164236 0.19169188 0.52356654 0 0 0 0 0
0.61003834 0.029235292 0.52352941 0 0 0 0 0
0.61073035 0.099322803 0.52354538 0 0 0 0 0
0.61156934 0.18429941 0.52356482 0 0 0 0 0
0.61000729 0.02609387 0.5235287 0 0 0 0 0
0.61002219 0.027599499 0.52352905 0 0 0 0 0
0.61014557 0.040099338 0.52353185 0 0 0 0 0
0.61017174 0.042744137 0.52353251 0 0 0 0 0
0.61027217 0.052916188 0.52353483 0 0 0 0 0
0.6102981 0.055543553 0.52353543 0 0 0 0 0
0.61040628 0.066501752 0.52353793 0 0 0 0 0
0.61042261 0.068154663 0.52353829 0 0 0 0 0
0.61044133 0.070052326 0.52353871 0 0 0 0 0
0.61056823 0.082900934 0.52354163 0 0 0 0 0
0.61069137 0.095373452 0.52354449 0 0 0 0 0
0.61071205 0.097467393 0.52354497 0 0 0 0 0
0.61082959 0.10937683 0.52354771 0 0 0 0 0
0.61085647 0.11209666 0.52354831 0 0 0 0 0
0.61097461 0.12405986 0.52355105 0 0 0 0 0
0.61100119 0.12675478 0.52355164 0 0 0 0 0
0.61110312 0.13708004 0.52355403 0 0 0 0 0
0.61112839 0.13963643 0.52355462 0 0 0 0 0
0.61125451 0.15241167 0.52355754 0 0 0 0 0
0.61127365 0.15434822 0.52355796 0 0 0 0 0
0.61139208 0.16634339 0.5235607 0 0 0 0 0
0.61141014 0.16817293 0.52356112 0 0 0 0 0
0.61153865 0.18118817 0.5235641 0 0 0 0 0
0.60990888 0.016121533 0.52352643 0 0 0 0 0
