# .PCD v0.7 - Point Cloud Data file format
VERSION 0.7
FIELDS x y z
SIZE 4 4 4
TYPE F F F
COUNT 1 1 1
WIDTH 1405
HEIGHT 1
VIEWPOINT 0 0 0 1 0 0 0
POINTS 1405
DATA ascii
0.76300627 -0.017072637 0.53674883
0.76514477 -0.016963642 0.53691214
0.79029167 -0.017839013 0.53574133
0.79360324 -0.017674029 0.53598893
0.79581791 -0.017563686 0.53615457
0.79915047 -0.017397651 0.53640366
0.80249369 -0.017231084 0.53665358
0.80585021 -0.017063865 0.53690445
0.83226693 -0.017962424 0.53570443
0.83573782 -0.017793536 0.53595817
0.83921999 -0.017624103 0.53621262
0.84154892 -0.017510781 0.53638291
0.84388351 -0.017397173 0.53655356
0.84739685 -0.017226212 0.53681046
0.87999558 -0.017919136 0.53592575
0.88365 -0.017745592 0.53618675
0.88731664 -0.017571459 0.5364486
0.8897692 -0.017454991 0.53662372
0.89222783 -0.017338216 0.53679937
0.89469272 -0.017221155 0.53697538
0.92782122 -0.017992035 0.53598082
0.93166471 -0.017814014 0.5362488
0.93552125 -0.017635372 0.5365178
0.93810117 -0.017515877 0.53669769
0.94068766 -0.017396068 0.53687805
0.55703306 -0.013361678 0.5344978
0.55947161 -0.013688664 0.53558272
0.56261647 -0.014578704 0.53596091
0.55159199 -0.010432457 0.534199
0.55382204 -0.010734757 0.53569007
0.55606776 -0.011662133 0.53609008
0.54819202 -0.0073169931 0.53509825
0.55051303 -0.0083341673 0.53594863
0.5449518 -0.0048486772 0.53461868
0.54704344 -0.0051351804 0.53637093
0.54217267 -0.0012014762 0.53532761
0.54386795 -0.0026789207 0.53576541
0.53970009 0.0010050498 0.53452969
0.54120076 0.00094887026 0.53624535
0.5385024 0.0040567862 0.53558117
0.53625417 0.0075363717 0.53533787
0.53790808 0.0066771023 0.53692341
0.53531951 0.01045762 0.53598046
0.53336632 0.01374286 0.53502679
0.53425652 0.012782563 0.53582168
0.58443224 0.014791037 0.53699547
0.5863294 0.01491437 0.53681701
0.60847396 0.014799924 0.5369485
0.61043584 0.014925248 0.53676713
0.63431156 0.014872786 0.53680778
0.658939 0.014818583 0.5368498
0.66104031 0.014948076 0.53666228
0.68327177 0.014697111 0.53698927
0.68544221 0.014828382 0.53679818
0.68761879 0.014960058 0.53660715
0.71060091 0.014705004 0.53693962
0.71285015 0.014838531 0.53674519
0.71510613 0.01497246 0.53655028
0.73887801 0.014713175 0.53688824
0.74237984 0.014917167 0.53659117
0.76936305 0.014790764 0.53673446
0.77300006 0.014998604 0.53643167
0.79597658 0.014590068 0.5369845
0.79973638 0.014800774 0.53667748
0.82731634 0.014596571 0.53693122
0.82991713 0.014739468 0.53672302
0.83252656 0.014882839 0.53651404
0.85982215 0.014603318 0.53687614
0.86252564 0.014748887 0.53666383
0.86523813 0.014894947 0.53645086
0.89356053 0.014610318 0.53681874
0.89637262 0.014758666 0.53660232
0.89919418 0.014907517 0.53638518
0.92568576 0.014466875 0.53697914
0.92860276 0.014617591 0.5367592
0.93152988 0.014768822 0.53653854
0.93446708 0.01492058 0.53631711
0.53293645 0.016699748 0.53579986
0.57240456 0.017133901 0.53521943
0.57478809 0.015712027 0.53618771
0.57783955 0.015887355 0.53544289
0.58066535 0.016074264 0.53517246
0.5835017 0.016261879 0.53490114
0.58635896 0.016450055 0.53461379
0.58921498 0.01561239 0.53577769
0.59301245 0.015348827 0.53618842
0.59589589 0.015536287 0.53591722
0.59879297 0.015724624 0.53564477
0.60170108 0.015913678 0.53537118
0.60462302 0.016103633 0.53509641
0.60755605 0.016294314 0.53482062
0.61052525 0.016485022 0.53450263
0.61344504 0.015634146 0.53569365
0.61635536 0.015303363 0.53621984
0.61933494 0.0154937 0.53594446
0.62232596 0.015684759 0.53566802
0.62533146 0.015876742 0.53539014
0.62834853 0.016069468 0.53511125
0.6313802 0.016263118 0.53483099
0.63444901 0.016456559 0.53450489
0.6369499 0.015824474 0.53537834
0.64042783 0.015256578 0.5362522
0.64350528 0.015449688 0.5359726
0.64659774 0.015643738 0.53569174
0.64970231 0.015838549 0.53540975
0.65282214 0.016034313 0.53512633
0.65595418 0.01623085 0.53484184
0.65805471 0.016362231 0.53464425
0.66129392 0.016557366 0.53421968
0.66420472 0.015143076 0.53637987
0.66738158 0.015338852 0.53609639
0.67057419 0.015535601 0.53581154
0.67377943 0.015733134 0.5355255
0.67592478 0.015865341 0.53533411
0.67915571 0.016064448 0.53504574
0.68239945 0.016264349 0.53475636
0.68572718 0.016462915 0.53435719
0.68980175 0.01509214 0.53641582
0.69199121 0.015224618 0.53622401
0.69418728 0.015357502 0.53603154
0.69749475 0.015557617 0.53574169
0.70081562 0.015758548 0.53545058
0.70303839 0.015893046 0.53525585
0.70638615 0.016095601 0.53496248
0.70976233 0.016298492 0.53464514
0.71207452 0.016432583 0.53435302
0.71439421 0.016567109 0.53406006
0.71850318 0.015174208 0.53625792
0.72191405 0.015376786 0.53596443
0.72419727 0.015512385 0.53576797
0.72763622 0.015716624 0.53547204
0.73108935 0.015921697 0.53517485
0.73340082 0.016058985 0.53497601
0.73571956 0.016196692 0.53477645
0.73929924 0.01640135 0.53434861
0.74589604 0.015122012 0.53629315
0.74824935 0.015259161 0.53609437
0.7517941 0.015465742 0.53579497
0.75535363 0.015673185 0.53549427
0.75773656 0.015812056 0.53529298
0.76012701 0.015951371 0.5350911
0.76374173 0.016160781 0.53476727
0.76744181 0.016368955 0.5343442
0.76993364 0.016507933 0.53404123
0.77543503 0.015137756 0.53622895
0.77787733 0.01527735 0.53602612
0.78155589 0.015487656 0.53572118
0.78525007 0.01569885 0.53541493
0.78772324 0.015840247 0.53520995
0.79020435 0.015982101 0.53500438
0.7926935 0.016124398 0.53479803
0.79655391 0.016335558 0.53433931
0.80351228 0.015012388 0.53636914
0.80604035 0.015154067 0.53616267
0.8085767 0.015296202 0.53595549
0.81112063 0.015438825 0.53574848
0.8136726 0.015581905 0.535541
0.81751722 0.015797457 0.53522831
0.82137853 0.016013945 0.53491431
0.82400841 0.016157646 0.53464693
0.82668173 0.01630087 0.53433448
0.82936442 0.016444601 0.5340209
0.83514446 0.015026672 0.53630441
0.83777106 0.015170987 0.53609401
0.84040624 0.01531577 0.53588301
0.84437603 0.015533909 0.5355655
0.84836257 0.015753038 0.53524756
0.85103196 0.015899763 0.53503472
0.85372245 0.016046651 0.53480607
0.85649371 0.016192095 0.53448862
0.85927486 0.016338063 0.53416997
0.86795968 0.015041494 0.53623712
0.87069035 0.015188532 0.53602278
0.87343013 0.015336064 0.53580761
0.87755817 0.015558354 0.5354836
0.88170391 0.015781665 0.53515917
0.88448 0.015931213 0.53494209
0.88733029 0.01607958 0.53464794
0.8902151 0.01622786 0.53432417
0.9020254 0.015056881 0.53616738
0.90486634 0.015206745 0.53594869
0.90771693 0.01535713 0.53572929
0.91057724 0.015508028 0.53550923
0.91344744 0.015659442 0.53528833
0.91632694 0.015811384 0.53506726
0.91924512 0.015963132 0.53481287
0.92223912 0.01611379 0.53448379
0.92524427 0.016265009 0.53415346
0.93741453 0.015072864 0.53609484
0.94037217 0.015225676 0.53587186
0.94334024 0.015379023 0.53564805
0.94631857 0.015532904 0.53542346
0.5324176 0.019887485 0.53608227
0.56885725 0.020124307 0.53441972
0.57090873 0.01861945 0.53425801
0.53195131 0.023071539 0.5362497
0.56593758 0.021653157 0.53635341
0.53146756 0.025961194 0.53591156
0.53086561 0.028560957 0.53528786
0.53195941 0.027917195 0.53679371
0.53067195 0.030946774 0.53506947
0.53169096 0.031096768 0.53652638
0.53043699 0.034129463 0.53472626
0.53145653 0.034278061 0.53618395
0.53022063 0.037314665 0.53434134
0.53122187 0.03746178 0.53584129
0.5644688 0.03792851 0.53528112
0.53050125 0.040575087 0.53471506
0.53149688 0.040720589 0.53622735
0.56380296 0.039553888 0.53623122
0.53075206 0.043836512 0.53515512
0.53177214 0.043980777 0.53661364
0.53051692 0.047027532 0.53481168
0.53153747 0.047170393 0.53627086
0.53034043 0.049422316 0.53455389
0.53136134 0.049564123 0.53601366
0.53019285 0.051819786 0.53423166
0.53118515 0.051959381 0.53575623
0.56461853 0.051950168 0.53510296
0.53089118 0.055954322 0.53532696
0.53165025 0.054981492 0.53641462
0.56361729 0.054368474 0.53653234
0.53071463 0.058353242 0.53506923
0.53173608 0.058491051 0.53652954
0.53047919 0.061553836 0.53472531
0.53150111 0.061690241 0.53618634
0.53026301 0.064758286 0.534338
0.53126591 0.064891867 0.5358429
0.5305438 0.068030879 0.53471339
0.53108943 0.06729462 0.53558511
0.56443292 0.066811733 0.53540421
0.53085399 0.070500545 0.53524113
0.53193498 0.069831647 0.53678876
0.56343126 0.069208488 0.53683412
0.5306772 0.072906673 0.53498298
0.5316999 0.073037997 0.53644526
0.5304414 0.07611689 0.53463864
0.53146458 0.076246783 0.53610158
0.53023517 0.079332754 0.53422821
0.53122914 0.079458043 0.5357576
0.56458199 0.080906078 0.53522748
0.53093451 0.083475485 0.53532732
0.53169525 0.082488462 0.5364176
0.56391191 0.082491629 0.53618461
0.53075767 0.085887924 0.53506899
0.53178138 0.086013436 0.53653276
0.53052157 0.08910656 0.53472424
0.53160477 0.088426039 0.53627473
0.53035468 0.091523476 0.53444296
0.53142798 0.090840176 0.53601658
0.53020728 0.093944877 0.53411794
0.53119218 0.094061084 0.53567225
0.56439579 0.095826074 0.53552985
0.53089726 0.098090626 0.53524131
0.53165889 0.097096011 0.53633308
0.56372565 0.097397149 0.5364868
0.53072011 0.10051032 0.53498256
0.53174514 0.10062928 0.53644836
0.53048402 0.1037387 0.5346368
0.53150928 0.10385618 0.53610379
0.53027773 0.1069748 0.53422451
0.53127337 0.10708554 0.53575897
0.53160888 0.10956655 0.53623366
0.56454808 0.10999233 0.53534734
0.53091896 0.11193424 0.53524137
0.53194469 0.11204804 0.53670859
0.56353909 0.11232834 0.53678948
0.5306825 0.11516982 0.53489596
0.53170884 0.11528219 0.53636366
0.5304513 0.11840899 0.53453833
0.53147268 0.1185188 0.53601867
0.53024983 0.12165704 0.53411412
0.53123641 0.12175791 0.53567332
0.53094077 0.12581021 0.53524148
0.53170413 0.12480118 0.53633595
0.56436133 0.12497122 0.53565061
0.5308224 0.12743224 0.53506863
0.53184956 0.12753907 0.53653789
0.53064477 0.12986657 0.53480911
0.53167242 0.12997229 0.53627884
0.53041899 0.13311705 0.53443837
0.53143597 0.13321868 0.53593332
0.53027117 0.13556188 0.53411216
0.53152221 0.13677251 0.53604877
0.53090334 0.14053208 0.53515506
0.53166771 0.13951537 0.53625095
0.56383514 0.14074056 0.53644031
0.5645135 0.13921142 0.53546828
0.5307256 0.14297281 0.53489524
0.5317542 0.14307261 0.5363667
0.53054768 0.14541477 0.53463542
0.53157669 0.14551347 0.53610736
0.53039122 0.14786422 0.53432798
0.53139913 0.14795592 0.53584778
0.53024322 0.15031759 0.53400129
0.5314855 0.15151817 0.53596342
0.56500649 0.15273209 0.53479779
0.53092515 0.15447582 0.53515494
0.53195453 0.15457037 0.53662783
0.56364775 0.15576382 0.53674453
0.56432635 0.15424958 0.53577238
0.53068781 0.15773952 0.53480834
0.53171778 0.15783262 0.53628165
0.53046215 0.16100937 0.53443527
0.53148079 0.16109738 0.53593528
0.53031397 0.1634701 0.53410834
0.53130293 0.16354753 0.53567535
0.53164011 0.16604391 0.5361523
0.56481946 0.16781133 0.53510177
0.5308876 0.16927031 0.53506827
0.53191829 0.16935813 0.53654301
0.56413889 0.16931379 0.5360769
0.53065002 0.17254388 0.53472102
0.53168118 0.17263025 0.53619641
0.53043431 0.17582762 0.53432465
0.53144395 0.1759049 0.53584969
0.53126591 0.17836246 0.53558928
0.5316034 0.18086287 0.53606683
0.56463206 0.18291672 0.53540629
0.53084993 0.18410257 0.53498131
0.53188193 0.18418363 0.53645802
0.56395102 0.18440408 0.53638202
0.53061324 0.18738651 0.53463095
0.53164458 0.18746565 0.53611094
0.53040648 0.19068447 0.53421372
0.531407 0.1907502 0.53576374
0.53168547 0.19407554 0.53615475
0.53099078 0.19650421 0.53515524
0.53202367 0.19657961 0.53663331
0.56512713 0.19657288 0.53473318
0.53087175 0.19814967 0.53498119
0.53190494 0.19822431 0.53645968
0.5644443 0.19804831 0.53571147
0.57092857 -0.015674371 0.53731775
0.57417405 -0.015461281 0.53790438
0.57752323 -0.015257886 0.53831029
0.58097529 -0.015063701 0.53854191
0.58912015 -0.01642756 0.53709269
0.59259444 -0.016230606 0.53738606
0.59523404 -0.016085105 0.53755981
0.59789538 -0.015940407 0.53771102
0.60145688 -0.015746765 0.53791356
0.60503411 -0.015552267 0.53811705
0.60772699 -0.015405857 0.53827012
0.61042976 -0.0152589 0.5384239
0.61404687 -0.015062235 0.53862959
0.62258136 -0.016455354 0.53716463
0.62529635 -0.016304499 0.53738987
0.62804389 -0.016155448 0.53757536
0.63174474 -0.015958428 0.53778136
0.63453066 -0.015810104 0.53793663
0.63732708 -0.015661221 0.53809243
0.64013195 -0.015511876 0.53824884
0.64294744 -0.015361977 0.53840572
0.64671558 -0.015161352 0.53861576
0.6495524 -0.015010314 0.53877383
0.65567219 -0.016586972 0.53708649
0.6584999 -0.016433081 0.53731644
0.66134763 -0.016279571 0.5375309
0.66423351 -0.016128466 0.53769678
0.66713542 -0.015977267 0.53785503
0.67101943 -0.015774887 0.53806686
0.6739437 -0.015622512 0.53822649
0.67687917 -0.015469538 0.53838682
0.67982364 -0.015316096 0.53854764
0.68277961 -0.015162063 0.53870904
0.68574476 -0.015007552 0.53887087
0.69119906 -0.016672103 0.53708309
0.69415116 -0.016514815 0.53731835
0.69711202 -0.016357062 0.53755426
0.70013213 -0.016203064 0.53771621
0.70316219 -0.01604862 0.53787804
0.70620406 -0.015893575 0.53804052
0.7092557 -0.015738036 0.53820342
0.71231925 -0.015581879 0.53836709
0.71539241 -0.015425229 0.53853136
0.71847773 -0.015267946 0.53869629
0.72157282 -0.015110169 0.53886187
0.72364277 -0.015004649 0.53897256
0.73042089 -0.016654003 0.53723991
0.73351073 -0.016492924 0.53748107
0.73664093 -0.016333666 0.53768146
0.7398054 -0.016175957 0.53784686
0.74192178 -0.016070498 0.53795749
0.7451067 -0.015911784 0.53812397
0.7483018 -0.015752554 0.53829098
0.7515099 -0.015592679 0.5384587
0.75472838 -0.0154323 0.53862691
0.756881 -0.015325016 0.53873944
0.76012027 -0.015163586 0.53890896
0.76336998 -0.015001608 0.53907913
0.76728821 -0.016854374 0.53707588
0.76943666 -0.016744852 0.53723997
0.77266943 -0.016580049 0.53748697
0.77593654 -0.016416676 0.53770137
0.77814382 -0.016309202 0.53781426
0.78146577 -0.016147451 0.53798401
0.7847985 -0.01598515 0.53815454
0.78702772 -0.01587661 0.53826857
0.79038262 -0.015713245 0.53844011
0.79374862 -0.015549343 0.53861225
0.79600006 -0.015439701 0.5387274
0.79938853 -0.015274705 0.53890061
0.80278814 -0.015109155 0.53907454
0.80921751 -0.016896125 0.53715605
0.81146944 -0.016783923 0.53732437
0.81485832 -0.016615104 0.53757757
0.81829798 -0.016448751 0.53777999
0.82061392 -0.016338617 0.53789574
0.8229357 -0.016228216 0.53801185
0.8264302 -0.016062047 0.53818655
0.82993644 -0.015895307 0.53836197
0.83228195 -0.015783783 0.53847915
0.83581209 -0.015615926 0.53865576
0.83935416 -0.015447483 0.5388329
0.84172368 -0.015334806 0.53895134
0.84409922 -0.015221855 0.53907013
0.84648079 -0.015108594 0.53918922
0.85092175 -0.017054697 0.53706807
0.85327935 -0.016939992 0.53724033
0.8556428 -0.016824996 0.537413
0.85920596 -0.01665239 0.53766513
0.86282647 -0.01648245 0.53786278
0.86525947 -0.01636954 0.53798157
0.86769873 -0.016256342 0.53810078
0.87137026 -0.016085964 0.53828025
0.87505466 -0.015914984 0.53846014
0.87751937 -0.015800603 0.5385806
0.87999058 -0.015685933 0.53870136
0.88371032 -0.015513314 0.53888309
0.88744295 -0.015340088 0.53906548
0.8899402 -0.015224199 0.53918749
0.89244395 -0.015108014 0.5393098
0.89840245 -0.017044986 0.53724039
0.90212464 -0.016868215 0.53750616
0.90461445 -0.016749974 0.5376839
0.90714043 -0.016633436 0.53782797
0.90969288 -0.016517926 0.53794974
0.91353512 -0.016344029 0.53813308
0.91739094 -0.016169513 0.53831714
0.91997069 -0.016052775 0.53844017
0.92255735 -0.01593571 0.53856355
0.92515087 -0.01581833 0.53868741
0.92775142 -0.015700625 0.53881145
0.93166614 -0.015523455 0.53899825
0.93559492 -0.01534564 0.53918576
0.93822354 -0.015226684 0.53931111
0.94085932 -0.015107395 0.53943682
0.94328076 -0.017275956 0.53705895
0.94588071 -0.017155536 0.53724021
0.56085014 -0.012928112 0.53738445
0.56302834 -0.012740893 0.53828144
0.5656575 -0.013401845 0.53847337
0.5684042 -0.014076196 0.53844774
0.57152325 -0.013848239 0.53926218
0.57480699 -0.013636636 0.53977126
0.5835855 -0.014918845 0.53869331
0.58620512 -0.014773466 0.53884518
0.58971071 -0.014578918 0.53904849
0.59234953 -0.014432474 0.53920156
0.594998 -0.014285494 0.53935516
0.59854221 -0.014088804 0.53956062
0.60210216 -0.013891241 0.53976703
0.60478187 -0.01374252 0.53992248
0.6065892 -0.01364468 0.53999752
0.61676979 -0.014914189 0.53878438
0.61950284 -0.014765587 0.53893983
0.622244 -0.014616548 0.53909576
0.62499547 -0.014466948 0.53925216
0.62867773 -0.014266737 0.53946161
0.63144982 -0.014116017 0.53961921
0.63423228 -0.013964732 0.5397774
0.63702309 -0.01381299 0.53993618
0.65240002 -0.0148587 0.53893256
0.65525633 -0.014706619 0.53909183
0.65812349 -0.014553964 0.53925163
0.66196108 -0.014349647 0.53946549
0.66485018 -0.014195818 0.5396266
0.66775048 -0.014041401 0.53978825
0.67065966 -0.013886514 0.53995037
0.68872142 -0.014852426 0.53903353
0.69170725 -0.014696828 0.53919655
0.69470489 -0.014540622 0.53936023
0.69771183 -0.014383927 0.53952444
0.70073056 -0.014226617 0.5396893
0.70375878 -0.014068817 0.53985465
0.7057839 -0.013963281 0.53996521
0.72571766 -0.014898879 0.53908354
0.72779751 -0.014792856 0.53919476
0.73092723 -0.014633307 0.53936213
0.73406702 -0.014473256 0.53952998
0.73616689 -0.01436621 0.53964221
0.73932672 -0.014205124 0.53981125
0.74249679 -0.014043524 0.53998083
0.76663303 -0.014838981 0.5392499
0.76990676 -0.014675826 0.5394212
0.7720964 -0.014566693 0.53953582
0.77539146 -0.014402467 0.53970826
0.77869749 -0.014237692 0.53988135
0.78090864 -0.014127479 0.53999716
0.80506223 -0.014998434 0.53919083
0.80848449 -0.014831761 0.53936613
0.81191826 -0.014664543 0.53954184
0.81421506 -0.014552675 0.53965956
0.8176719 -0.014384327 0.53983653
0.84886855 -0.01499506 0.53930861
0.85126245 -0.014881236 0.53942823
0.85366249 -0.014767099 0.53954828
0.85606855 -0.014652672 0.53966874
0.85969007 -0.01448044 0.53985012
0.89495426 -0.014991512 0.53943253
0.89873302 -0.014816158 0.53961712
0.90252519 -0.01464019 0.53980237
0.90506214 -0.014522458 0.53992629
0.94350201 -0.014987792 0.539563
0.94615203 -0.014867856 0.53968948
0.55672234 -0.010258947 0.53801656
0.55932647 -0.010733103 0.53877872
0.562181 -0.011054419 0.53960454
0.55114889 -0.006935901 0.5379138
0.55345923 -0.0075545916 0.53869021
0.55577302 -0.0081734676 0.539469
0.54800683 -0.0038622902 0.53828025
0.55035645 -0.00487734 0.53905958
0.54478192 -0.0014059119 0.5377807
0.54702085 -0.0017052637 0.53920746
0.54215717 0.0022133915 0.53816587
0.54391706 0.001303792 0.53892541
0.53947902 0.0052187415 0.53760952
0.5414896 0.0046357377 0.5389663
0.53875655 0.0080346782 0.53842944
0.54023057 0.0069795004 0.53921813
0.53675234 0.011492605 0.53815746
0.53820461 0.010440296 0.53898817
0.58872426 0.011950326 0.53995699
0.61283165 0.01191433 0.53997695
0.63772124 0.011877169 0.53999782
0.66549963 0.0119657 0.53990334
0.692146 0.011928058 0.53992206
0.71970272 0.011889128 0.53994131
0.74821711 0.011848846 0.53996134
0.75053012 0.011982256 0.53982651
0.77774012 0.011807136 0.53998196
0.78013885 0.011942843 0.53984481
0.81081539 0.011902018 0.53986377
0.84261853 0.011859682 0.53988343
0.87561136 0.011815775 0.53990394
0.87830591 0.01195934 0.53975856
0.9098621 0.011770188 0.53992504
0.91266418 0.011916424 0.53977704
0.94544411 0.011722829 0.53994703
0.5356946 0.013814943 0.53798634
0.53742784 0.014040509 0.53971732
0.57177329 0.014020089 0.53905535
0.57463372 0.013387701 0.53885645
0.57753819 0.013563514 0.53839821
0.58085179 0.013519689 0.53839725
0.58313978 0.01392873 0.53795445
0.58654022 0.013372812 0.53855002
0.5899719 0.012814196 0.53910714
0.59227484 0.013225377 0.53869367
0.59563208 0.013182145 0.53873456
0.5984782 0.013366904 0.53854752
0.60133719 0.013552495 0.53835964
0.60474265 0.013508625 0.53838527
0.60711503 0.013924083 0.53793216
0.61060739 0.013359508 0.53854656
0.61413801 0.012791926 0.53911245
0.61652386 0.013209662 0.53869259
0.61954439 0.012871286 0.53902954
0.62239456 0.013585266 0.53831232
0.6254375 0.013246122 0.53865004
0.62832868 0.013963368 0.53790295
0.63140249 0.013623121 0.53822708
0.6344555 0.013282563 0.5386073
0.63745737 0.013472371 0.53841501
0.64064002 0.012597356 0.53928888
0.64358079 0.013320311 0.53856301
0.64670128 0.012976123 0.53890574
0.64966983 0.013703056 0.53817546
0.65281999 0.013357825 0.53850859
0.65585542 0.01408723 0.53770864
0.65802538 0.013139211 0.53873456
0.66112256 0.013331579 0.53853965
0.66423142 0.013524675 0.53834403
0.66743016 0.013176675 0.53869009
0.67063946 0.012827015 0.53903806
0.67371345 0.013564629 0.53829753
0.6763835 0.013454802 0.53840566
0.67907256 0.013343527 0.5384981
0.68171155 0.013778859 0.53802264
0.68551219 0.013186479 0.53866816
0.68872124 0.013382223 0.53846985
0.69086885 0.013513218 0.53833705
0.69416869 0.013159345 0.53868866
0.69747937 0.012803755 0.53904241
0.70067441 0.013553781 0.53828943
0.70343745 0.01344192 0.53839272
0.70621604 0.013328748 0.5384872
0.70895803 0.013771366 0.53800046
0.71286833 0.013169115 0.53866649
0.71619219 0.013368162 0.5384649
0.71841675 0.013501375 0.5383299
0.72182262 0.013141423 0.53868735
0.7246511 0.013027623 0.53879917
0.72748888 0.012912732 0.5389123
0.73082989 0.013676798 0.53813386
0.73371339 0.013562391 0.53821111
0.73658562 0.013447603 0.53831995
0.74002624 0.013083794 0.53873318
0.74231821 0.013218495 0.53859657
0.74576974 0.01342136 0.53839099
0.74923497 0.013625029 0.53818464
0.75220215 0.012938704 0.53886884
0.75452876 0.013074174 0.53873175
0.75742638 0.013530953 0.53827256
0.76039577 0.01341466 0.53835928
0.76336354 0.013297617 0.53846371
0.76632881 0.013755586 0.53795344
0.76928556 0.013064019 0.53873271
0.77166212 0.013201075 0.53859377
0.77524149 0.01340748 0.53838444
0.77883524 0.013614725 0.53817439
0.78189284 0.012916207 0.53887045
0.78430605 0.013054051 0.53873086
0.78732204 0.013518805 0.53825855
0.79040003 0.013400301 0.53834164
0.79346979 0.013281214 0.53845114
0.79713631 0.012904468 0.53887242
0.79959428 0.013043531 0.53873193
0.80205995 0.013183019 0.53859079
0.80453354 0.013322932 0.53844887
0.80825913 0.013533663 0.53823519
0.8120001 0.01374526 0.53802055
0.81454456 0.01270231 0.53906131
0.81767291 0.013173932 0.53858757
0.82020706 0.013314664 0.53842652
0.82341397 0.013788408 0.53788131
0.82591403 0.012739601 0.53901672
0.82845801 0.012880724 0.53887397
0.83228987 0.013093289 0.53865904
0.83613777 0.013306752 0.53844309
0.83871412 0.013449644 0.53829819
0.84129858 0.01359298 0.53815287
0.84455132 0.012868732 0.53887391
0.84715235 0.013011575 0.53872919
0.85042953 0.013493078 0.53822565
0.85374093 0.013369989 0.53830439
0.85639668 0.01351369 0.53812677
0.85962141 0.012784243 0.5389483
0.863594 0.013000252 0.53872967
0.86625355 0.013144872 0.5385834
0.8689217 0.013289948 0.53843659
0.8715983 0.013435492 0.53828943
0.87428367 0.013581502 0.53814149
0.87697792 0.013727972 0.53799289
0.88034499 0.012989147 0.53872836
0.88306397 0.013134891 0.53857195
0.88652933 0.013625406 0.53801101
0.88996458 0.013500364 0.53810364
0.89190948 0.012684163 0.53902525
0.89465672 0.012830531 0.53887713
0.89741278 0.012977385 0.53872854
0.90156496 0.013198609 0.53850466
0.90573514 0.013420799 0.53827989
0.90852737 0.013569576 0.53812927
0.91132879 0.013718833 0.53797823
0.91413975 0.013868572 0.53782624
0.91623509 0.013040488 0.5386315
0.91908884 0.013188669 0.53844821
0.92262304 0.013060292 0.53856957
0.92681295 0.012654842 0.53902978
0.92967081 0.012803985 0.5388788
0.93253809 0.012953627 0.53872734
0.93541485 0.013103765 0.53857541
0.93830121 0.013254401 0.538423
0.94119728 0.013405538 0.53826988
0.94410282 0.013557178 0.53811646
0.94701815 0.013709323 0.53796244
0.53509307 0.017006947 0.53844601
0.56699961 0.016955206 0.53897542
0.56928062 0.01625271 0.53813303
0.57132292 0.015556907 0.5377847
0.53390342 0.020912709 0.53814119
0.53471065 0.01939616 0.53864199
0.56502533 0.019258469 0.53880894
0.56760567 0.018548248 0.53735006
0.53367156 0.022503857 0.53822184
0.5349381 0.021857738 0.53934383
0.56268781 0.022375131 0.53918856
0.53338444 0.024888456 0.53821039
0.53453505 0.025037494 0.53937268
0.56290179 0.025601003 0.53794247
0.53305328 0.028066987 0.53808212
0.53420395 0.028215636 0.53924483
0.56254047 0.028845116 0.5378679
0.53334028 0.03132011 0.53844178
0.56179368 0.032093316 0.53858066
0.53307438 0.034500368 0.53817052
0.53481114 0.034722142 0.53989363
0.56120652 0.034526389 0.53917122
0.53281337 0.037682589 0.53788793
0.53454041 0.037903838 0.53963423
0.56062728 0.036955938 0.53974652
0.53276825 0.040625885 0.53781796
0.5342747 0.041087434 0.53936327
0.56313848 0.041175839 0.53717935
0.5328536 0.044126146 0.53793454
0.53407538 0.043476336 0.53915989
0.56247687 0.043607995 0.53791934
0.5334686 0.046083219 0.53854787
0.56169224 0.046847269 0.53870857
0.53303194 0.048981719 0.53810591
0.53476763 0.049201183 0.53983843
0.56071329 0.050888535 0.53969306
0.5611046 0.049273167 0.53929955
0.53277457 0.052172616 0.53781432
0.53449982 0.05239113 0.53957152
0.53307736 0.055437509 0.53814161
0.53423381 0.055583067 0.5393002
0.56296569 0.055976763 0.53745395
0.5331744 0.058946382 0.53823328
0.53403425 0.057978235 0.53909647
0.56237596 0.058402568 0.53804684
0.53312284 0.061900325 0.53817719
0.53486401 0.062117942 0.53990352
0.56159061 0.061632216 0.53883666
0.53286111 0.065098621 0.53789425
0.53465879 0.064515404 0.53971225
0.56061071 0.065661453 0.5398221
0.56100237 0.064050891 0.53942823
0.53267312 0.067499235 0.53766364
0.53445911 0.066914424 0.5395087
0.53303492 0.069970787 0.53807688
0.5341928 0.070114732 0.53923696
0.56286508 0.070809722 0.53758115
0.53334719 0.073245198 0.53838485
0.56227493 0.07322827 0.53817445
0.53308034 0.07644958 0.53811258
0.53482044 0.076664649 0.53984833
0.56148875 0.076448232 0.53896505
0.53282231 0.079656869 0.53782046
0.53455162 0.079870224 0.53958148
0.5607096 0.079663098 0.53974271
0.53312594 0.08293546 0.53814828
0.53428507 0.083077967 0.53930962
0.53285879 0.086145513 0.53787571
0.53408498 0.085485004 0.53910547
0.56300461 0.084873974 0.53742242
0.533476 0.088113591 0.53849125
0.53498977 0.088839576 0.53996849
0.56217349 0.088085204 0.53830242
0.5330382 0.09103512 0.53804678
0.53477776 0.091247484 0.53979063
0.5613867 0.091295436 0.53909367
0.53278345 0.094251677 0.53774655
0.53451097 0.094461709 0.53951848
0.56062102 0.094502702 0.53984302
0.53308332 0.097536996 0.53808355
0.534244 0.097677886 0.5392462
0.56305832 0.098965071 0.53743887
0.53318065 0.10107061 0.53817558
0.53404367 0.10009125 0.53904176
0.56266314 0.10056951 0.53783655
0.53312898 0.10404605 0.5381192
0.53494287 0.10345198 0.53992057
0.56207192 0.10297345 0.53843075
0.53293312 0.10646331 0.53790379
0.53473729 0.10586689 0.53972781
0.56128442 0.10617392 0.5392226
0.53295207 0.10863625 0.53790748
0.53447008 0.10908958 0.53945529
0.56069458 0.10857073 0.53981572
0.53304076 0.11217497 0.53801847
0.53420281 0.11231424 0.53918254
0.56295681 0.11389693 0.53756779
0.53313822 0.11571722 0.53811061
0.53452301 0.11561149 0.53947794
0.56256193 0.11549655 0.53796458
0.53308678 0.11870024 0.53805345
0.53483039 0.11890796 0.53980118
0.56197011 0.11789311 0.53855926
0.53283131 0.12193361 0.53775251
0.534563 0.12213815 0.53952837
0.56098497 0.12188073 0.53954983
0.56137878 0.12028682 0.53915381
0.53319907 0.12442413 0.53815854
0.53436238 0.12456203 0.53932369
0.56060004 0.12347494 0.53992796
0.53299809 0.12684952 0.53795326
0.53416157 0.12698713 0.53911889
0.56310397 0.12807287 0.53739423
0.5333119 0.13015364 0.53826267
0.53499669 0.13116984 0.53992981
0.56246036 0.13045512 0.53809303
0.53304607 0.13339148 0.53798389
0.53478992 0.13359624 0.53973818
0.56186819 0.13284433 0.53868806
0.53300047 0.13638499 0.53791386
0.53452218 0.13683495 0.53946507
0.56088209 0.13681959 0.53967947
0.56127626 0.13523062 0.5392831
0.5330894 0.13993949 0.53802496
0.53425425 0.14007565 0.53919172
0.5605253 0.13841584 0.53999966
0.532821 0.14318253 0.53775108
0.53405327 0.1425074 0.53898656
0.56295973 0.14306185 0.53761017
0.53344131 0.14516562 0.53836942
0.53502405 0.14507776 0.53993368
0.56235874 0.14544538 0.53822154
0.5330056 0.14811972 0.53791344
0.53474927 0.14832127 0.53967506
0.56176585 0.14782712 0.53881729
0.5329603 0.15112112 0.53784251
0.53448123 0.15156855 0.53940153
0.56077892 0.15179001 0.53980953
0.56117344 0.15020598 0.5394128
0.53304672 0.15468329 0.53795964
0.53421295 0.1548178 0.53912783
0.53314441 0.15825064 0.53805208
0.53401172 0.15725599 0.53892243
0.56285107 0.15808958 0.53775334
0.53315973 0.16044179 0.538064
0.5349803 0.15983036 0.53987813
0.56225675 0.16046736 0.53835052
0.53296673 0.16288555 0.53783917
0.53470862 0.16308321 0.53961182
0.56166339 0.16284165 0.53894675
0.5332728 0.16620585 0.53816867
0.53444016 0.16633905 0.53933793
0.56068152 0.16679388 0.53992748
0.5610705 0.16521306 0.53954262
0.53300381 0.16946407 0.53789419
0.53417158 0.16959691 0.53906381
0.56346029 0.17081314 0.53704882
0.53331876 0.17279051 0.53820455
0.53507781 0.17299156 0.53994387
0.56274951 0.17315096 0.53788197
0.53305423 0.17605412 0.53791994
0.53486931 0.17543507 0.53975385
0.56215465 0.17552121 0.53847969
0.53286457 0.17850618 0.53768706
0.53466785 0.17788216 0.5395484
0.56156075 0.17788799 0.53907645
0.53323019 0.1810151 0.53810334
0.53439903 0.18114664 0.5392741
0.56078696 0.1810447 0.53983611
0.53296089 0.18428196 0.53782851
0.5341301 0.18441312 0.53899968
0.56327242 0.18588851 0.53735369
0.53327614 0.1876162 0.53813934
0.53503406 0.18781374 0.53988814
0.5628463 0.18745627 0.53781134
0.53301531 0.19089013 0.53784543
0.53476143 0.19108248 0.53962207
0.56225073 0.18981969 0.53840971
0.53338969 0.19340619 0.53824419
0.53455967 0.19353633 0.53941613
0.56145775 0.19296625 0.53920639
0.53318751 0.19586158 0.53803784
0.53435779 0.19599143 0.53921014
0.56086397 0.19532269 0.53980297
0.53298521 0.19831795 0.53783149
0.53415585 0.19844751 0.53900409
0.56908077 -0.012264832 0.54022384
0.57149965 -0.012100847 0.54067254
0.57733583 -0.013483838 0.5400387
0.57995051 -0.013338859 0.54015565
0.58345675 -0.013145585 0.54029858
0.58697867 -0.012951436 0.54044223
0.58963013 -0.012805277 0.54055035
0.59229153 -0.012658566 0.54065889
0.59585345 -0.012462214 0.54080409
0.598535 -0.012314385 0.54091352
0.60122681 -0.01216601 0.54102314
0.60392672 -0.012017179 0.54113322
0.60840213 -0.01354677 0.54007006
0.61021924 -0.013448636 0.54014271
0.61295325 -0.013300985 0.54025203
0.61661243 -0.013103355 0.54039848
0.61936748 -0.012954572 0.54050857
0.62213302 -0.012805209 0.54061919
0.62583464 -0.012605298 0.54076719
0.62862146 -0.01245478 0.54087883
0.63141912 -0.012303685 0.54099071
0.63422555 -0.012152129 0.54110283
0.63750273 -0.012881821 0.54059803
0.64079237 -0.013612954 0.54009217
0.64363486 -0.013462624 0.54020369
0.64648622 -0.013311815 0.54031557
0.64934886 -0.013160427 0.54042768
0.65222031 -0.013008562 0.54054034
0.65510309 -0.012856097 0.54065335
0.65896189 -0.012652012 0.54080474
0.6618675 -0.012498345 0.54091871
0.66478455 -0.012344083 0.54103291
0.66771078 -0.01218932 0.54114765
0.66966778 -0.012085821 0.54122442
0.6736021 -0.013733018 0.54007721
0.67656225 -0.013579783 0.54019099
0.67953408 -0.013425937 0.54030532
0.6825155 -0.013271599 0.54041988
0.68550879 -0.01311665 0.54053497
0.68851167 -0.012961195 0.54065043
0.69152665 -0.01280512 0.54076636
0.69455141 -0.01264855 0.54088247
0.69758832 -0.012491349 0.54099917
0.70063502 -0.012333631 0.54111624
0.70369405 -0.012175284 0.54123378
0.70729315 -0.012937369 0.54070663
0.70988005 -0.013754142 0.54013908
0.7119419 -0.013649722 0.54021674
0.7150448 -0.01349259 0.54033351
0.71815777 -0.013334936 0.54045081
0.72128344 -0.013176638 0.54056853
0.72441941 -0.013017825 0.54068655
0.72756827 -0.012858357 0.54080516
0.73072743 -0.012698367 0.54092413
0.73389971 -0.012537721 0.54104352
0.73708242 -0.012376548 0.54116327
0.73921126 -0.012268741 0.54124337
0.74241513 -0.012106499 0.54136395
0.74569803 -0.013882746 0.54012454
0.74892741 -0.013722849 0.54024351
0.75108743 -0.013615878 0.54032326
0.75433838 -0.013454908 0.54044306
0.75760007 -0.013293394 0.54056334
0.76087558 -0.013131199 0.5406841
0.76416194 -0.012968457 0.54080528
0.76636028 -0.012859618 0.54088622
0.76966894 -0.012695787 0.54100817
0.77298862 -0.012531397 0.5411306
0.77520919 -0.012421437 0.5412125
0.77855146 -0.012255944 0.5413357
0.78190511 -0.012089882 0.5414592
0.78425241 -0.013962822 0.54014981
0.78763044 -0.013799344 0.54027176
0.78989017 -0.013690001 0.5403533
0.79329145 -0.013525421 0.5404759
0.79670435 -0.013360284 0.54059899
0.79898733 -0.013249793 0.54068142
0.8024236 -0.013083518 0.54080534
0.80587167 -0.012916658 0.54092979
0.80817837 -0.012805046 0.54101294
0.81165034 -0.012637039 0.54113817
0.81513429 -0.012468445 0.54126388
0.81746501 -0.012355674 0.54134786
0.82047099 -0.013229009 0.5407232
0.82336611 -0.012749071 0.54108375
0.82581323 -0.013991062 0.54021788
0.82935703 -0.013823585 0.54034281
0.8329131 -0.013655514 0.54046834
0.83529216 -0.01354308 0.54055226
0.83767742 -0.013430356 0.54063642
0.84126788 -0.013260663 0.54076314
0.84487104 -0.013090374 0.54089028
0.84728158 -0.01297645 0.54097533
0.84969848 -0.012862235 0.54106057
0.85333669 -0.012690285 0.54118896
0.85698777 -0.012517729 0.54131776
0.85943049 -0.012402292 0.54140389
0.86260188 -0.013297075 0.54076123
0.86562937 -0.012805531 0.54113162
0.86821669 -0.014077711 0.54024673
0.87069136 -0.01396355 0.54033214
0.87441671 -0.013791716 0.54046053
0.87815535 -0.013619252 0.54058945
0.88065672 -0.01350386 0.54067576
0.88316488 -0.013388161 0.54076225
0.88567984 -0.013272153 0.54084891
0.88946569 -0.013097504 0.5409795
0.89326537 -0.012922233 0.54111058
0.89580768 -0.012804964 0.54119819
0.8983568 -0.012687375 0.54128617
0.90091294 -0.012569455 0.54137427
0.903476 -0.012451227 0.54146266
0.90742505 -0.012983626 0.54108083
0.91068161 -0.013190313 0.54095244
0.91273397 -0.014168689 0.54027694
0.91663384 -0.013993206 0.54040831
0.92054808 -0.013817078 0.54054016
0.92316705 -0.013699234 0.54062849
0.92579329 -0.013581065 0.54071701
0.92842692 -0.013462567 0.5408057
0.93106776 -0.013343734 0.54089463
0.93371582 -0.013224573 0.54098392
0.93637133 -0.013105098 0.54107338
0.94036937 -0.012925191 0.54120803
0.94438219 -0.012744634 0.54134327
0.94706738 -0.01262381 0.54143375
0.56074142 -0.0094494577 0.54036051
0.5630098 -0.009269665 0.54106534
0.56524754 -0.010242015 0.54092985
0.56835663 -0.010588723 0.54127789
0.57158995 -0.010368503 0.5418551
0.57449698 -0.01105404 0.5415473
0.57746476 -0.011164996 0.54159492
0.58054894 -0.01070362 0.54188991
0.58366275 -0.010241906 0.5421499
0.586236 -0.010670471 0.54193544
0.58937317 -0.010207438 0.54219627
0.59253263 -0.0097431876 0.54243773
0.59512514 -0.010172123 0.54224539
0.59863007 -0.010553019 0.54207385
0.6013391 -0.010403735 0.54214811
0.60461646 -0.010808467 0.54188418
0.60764647 -0.010641488 0.5419752
0.61032265 -0.011079296 0.54172701
0.61354959 -0.010608787 0.54200661
0.61679995 -0.010137013 0.54226673
0.61948603 -0.010574223 0.5420596
0.62234348 -0.0098314956 0.54244322
0.62504035 -0.010268833 0.542252
0.62868875 -0.010657526 0.54207724
0.63150507 -0.010505449 0.54215318
0.63433266 -0.010352787 0.54222906
0.63757622 -0.011074409 0.54177928
0.64041531 -0.010921095 0.54187417
0.64377058 -0.010441015 0.54214966
0.64656878 -0.010887716 0.54191649
0.64950871 -0.010131164 0.54232883
0.65231287 -0.01057752 0.54212093
0.65528822 -0.0098190922 0.54250932
0.65810788 -0.010265967 0.54231054
0.66191822 -0.01066301 0.54213214
0.66485566 -0.010507674 0.54220963
0.66780496 -0.010351712 0.54228747
0.6711967 -0.011088664 0.5418334
0.67368853 -0.010651457 0.54208875
0.67660826 -0.011107909 0.5418371
0.67964649 -0.010336391 0.54227126
0.68257231 -0.010792504 0.54204535
0.68564796 -0.010019016 0.54245508
0.68857974 -0.010474809 0.54225498
0.69169849 -0.0096997162 0.54263258
0.69456911 -0.010774257 0.54213667
0.69762808 -0.01061591 0.54221576
0.70069963 -0.010456906 0.54229528
0.70378137 -0.010297374 0.54237503
0.70687592 -0.010137185 0.54245508
0.70988983 -0.011230099 0.54182518
0.7124967 -0.010782925 0.54208887
0.7151233 -0.01033473 0.54233599
0.71818316 -0.010800804 0.54210889
0.7213912 -0.010010276 0.5425241
0.72445869 -0.010476172 0.54232091
0.72714061 -0.010026395 0.54254162
0.73072517 -0.010782598 0.54219526
0.73392141 -0.010620709 0.54227632
0.73605949 -0.010512416 0.5423305
0.73927748 -0.010349428 0.54241204
0.74250627 -0.010185892 0.54249394
0.74570912 -0.01066234 0.54221249
0.74890578 -0.011139125 0.54195714
0.75163746 -0.010681437 0.54222107
0.7543906 -0.010222651 0.54246783
0.75759566 -0.010699037 0.54224837
0.76036721 -0.010239324 0.54249561
0.76257038 -0.010128591 0.54255521
0.76631844 -0.010901388 0.54220134
0.76965296 -0.010736221 0.54228407
0.77188367 -0.010625735 0.54233956
0.77524126 -0.010459425 0.54242289
0.77861047 -0.010292536 0.54250664
0.78086442 -0.01018089 0.5425626
0.78422087 -0.01066816 0.54227853
0.78757048 -0.011155817 0.54202127
0.79042602 -0.010687628 0.5422895
0.7933048 -0.010218266 0.54254025
0.79666293 -0.010705556 0.5423196
0.80001539 -0.011193424 0.54212338
0.80232656 -0.011081518 0.54217952
0.8058055 -0.010913089 0.5422641
0.80929679 -0.010744064 0.54234898
0.81163245 -0.010630985 0.54240578
0.81397438 -0.010517616 0.54246265
0.8174997 -0.010346932 0.54254836
0.82103753 -0.010175656 0.54263437
0.82340449 -0.010061059 0.54269195
0.82631314 -0.010923885 0.54221797
0.8293035 -0.01044458 0.54248154
0.83282125 -0.010943448 0.54224098
0.8358326 -0.010463131 0.54250509
0.8387168 -0.011327325 0.5421142
0.8411212 -0.011212358 0.54218554
0.84475756 -0.011040384 0.54227203
0.84840697 -0.01086777 0.54235888
0.85084867 -0.010752288 0.54241699
0.85329711 -0.010636495 0.54247516
0.85575211 -0.010520387 0.54253358
0.85944808 -0.010345589 0.54262149
0.86315739 -0.010170158 0.54270971
0.86563927 -0.010052774 0.54276884
0.86869729 -0.010936256 0.5422895
0.87118274 -0.010818748 0.54236281
0.87367505 -0.010700921 0.54243636
0.87671292 -0.011585519 0.54201359
0.88045955 -0.011408465 0.54214561
0.88424307 -0.011232224 0.54225075
0.88678414 -0.01111488 0.54231
0.88933235 -0.010997229 0.54236925
0.89188761 -0.010879247 0.54242861
0.89444995 -0.010760929 0.54248822
0.89830768 -0.010582799 0.54257804
0.90217984 -0.010404007 0.54266804
0.90477079 -0.01028437 0.54272842
0.90736902 -0.010164395 0.54278886
0.90997458 -0.010044081 0.54284948
0.91319299 -0.01094925 0.54236448
0.91580224 -0.010828825 0.54243982
0.91900235 -0.01173501 0.54199815
0.921615 -0.011614489 0.54208827
0.92555308 -0.011433322 0.54221869
0.92953306 -0.011253078 0.5423193
0.93220234 -0.011132828 0.54238003
0.93487924 -0.011012223 0.54244089
0.93756372 -0.01089128 0.54250193
0.94025582 -0.010769993 0.5425632
0.94295573 -0.010648355 0.54262453
0.94566321 -0.010526381 0.54268616
0.5563125 -0.006988137 0.54046643
0.5590927 -0.0070330827 0.54135019
0.56195533 -0.0070855855 0.54208243
0.56600833 -0.0079170568 0.54239547
0.56825674 -0.0080439076 0.542642
0.57101995 -0.0087093823 0.54259413
0.57440293 -0.0084996466 0.54289359
0.59800857 -0.0088621471 0.54286075
0.60161877 -0.0086591933 0.5429616
0.62802792 -0.0089330124 0.5428797
0.63084054 -0.0087780161 0.54295689
0.66121256 -0.0089014564 0.54295194
0.5512591 -0.0035106274 0.54045683
0.5536257 -0.0041306512 0.54110986
0.5565452 -0.0038775061 0.54221362
0.55983579 -0.0044522015 0.54277658
0.56265533 -0.0059126657 0.54275185
0.54820663 -0.00045675208 0.5406394
0.5505327 -0.0010693549 0.54135919
0.55287302 -0.0016837862 0.54206026
0.55511063 -0.001496691 0.54278064
0.54552233 0.0017657924 0.54027385
0.54754138 0.0019719687 0.54142034
0.55020219 0.0019451323 0.5424937
0.55319679 4.4661064e-07 0.54276663
0.54438275 0.005126229 0.5410955
0.54692328 0.0043934714 0.54210305
0.54909128 0.0045898575 0.54293793
0.54193896 0.0079984078 0.54080027
0.54480672 0.0074737379 0.54214358
0.5472756 0.0060684667 0.54274708
0.57429999 0.0078518363 0.54266131
0.57797712 0.0080796834 0.54242158
0.58070016 0.0082541881 0.54233301
0.58367199 0.0079113171 0.54249346
0.58665442 0.0075670942 0.54265445
0.58916402 0.0082622087 0.54233074
0.59216797 0.0079173166 0.54249215
0.5951826 0.0075710453 0.54265404
0.59796667 0.0077468655 0.54257262
0.6016947 0.0079822894 0.54246348
0.60450268 0.0081596142 0.54238129
0.60732269 0.0083376933 0.54229879
0.61064047 0.0074612326 0.54270804
0.61323828 0.0081672221 0.54237932
0.61668986 0.0081115849 0.54240578
0.61944342 0.0074646412 0.54270792
0.62231946 0.0076430673 0.54262531
0.62520558 0.0078221196 0.54254234
0.62810409 0.0080019496 0.54245913
0.63198578 0.0082427617 0.54234755
0.63490987 0.0084241638 0.54226345
0.63772583 0.0077707157 0.54256868
0.64067137 0.0079518203 0.54248464
0.64325917 0.0078335796 0.54254025
0.64647347 0.0074754157 0.54270786
0.64945394 0.0076570106 0.54262376
0.65244502 0.007839256 0.54253924
0.65544927 0.008022299 0.54245436
0.65846419 0.0082060015 0.54236931
0.66149259 0.0083905123 0.54228377
0.66439688 0.0077257319 0.54259431
0.66744798 0.0079099378 0.54250884
0.67050993 0.0080948081 0.54242331
0.673446 0.0074251606 0.54273605
0.67653108 0.007609712 0.54265052
0.67963004 0.0077950992 0.54256463
0.68274009 0.0079811485 0.5424785
0.68586433 0.0081680343 0.54239178
0.68899977 0.0083556017 0.54230493
0.69199932 0.0076786447 0.54262114
0.69450659 0.00811332 0.5424189
0.69727314 0.0079917964 0.54247606
0.70005101 0.0078692455 0.54253167
0.7034936 0.0074981316 0.54270726
0.7067005 0.0076864199 0.54262
0.7099191 0.0078754006 0.5425325
0.71207267 0.00800185 0.54247397
0.71531498 0.0081922226 0.54238576
0.71856928 0.0083832899 0.54229718
0.72183853 0.0085752429 0.54220831
0.72495204 0.0078852624 0.54253054
0.72714651 0.0080128955 0.54247141
0.73027945 0.0073191905 0.54279542
0.73359364 0.0075101224 0.54270697
0.73581141 0.0076378859 0.54264778
0.7391504 0.0078302473 0.54255867
0.74250191 0.0080233263 0.54246926
0.7458691 0.0082173077 0.5423795
0.74924892 0.0084120184 0.54228926
0.75151062 0.008542316 0.54222894
0.75473046 0.0078391992 0.54255718
0.75745332 0.0082910275 0.54234147
0.76024514 0.0072632725 0.54282677
0.76368523 0.0074576591 0.54273677
0.7671383 0.0076527782 0.54264635
0.76944906 0.0077833552 0.54258597
0.77176648 0.0079142973 0.54252529
0.77525586 0.0081114704 0.54243398
0.77875853 0.0083093904 0.54234231
0.78110254 0.0084418477 0.54228103
0.78463221 0.0086412886 0.54218858
0.7879734 0.0079248277 0.54251981
0.79035485 0.0080569526 0.54244268
0.79370099 0.0073371502 0.54279804
0.79728085 0.0075354991 0.54270631
0.79967666 0.0076682442 0.54264492
0.80207944 0.0078013684 0.54258323
0.80569762 0.0080018323 0.54249048
0.80932993 0.0082030743 0.5423972
0.81176084 0.0083377594 0.54233491
0.81419891 0.0084728366 0.54227233
0.81664413 0.0086083133 0.54220957
0.82059383 0.0082117245 0.54238558
0.82357043 0.0071451878 0.54289281
0.82604146 0.0072793737 0.54283065
0.8285197 0.0074139554 0.54276836
0.83225179 0.0076166224 0.54267454
0.83599848 0.0078200959 0.54258049
0.83850616 0.0079562785 0.54251748
0.84102142 0.0080928588 0.54245418
0.84354407 0.0082298499 0.54239082
0.84734309 0.0084361574 0.54229522
0.85115737 0.0086432826 0.54219937
0.85372496 0.0087813716 0.5421173
0.85604525 0.0079669962 0.54248971
0.85962933 0.0072194687 0.54286444
0.86349607 0.0074252025 0.54276931
0.86608428 0.0075629046 0.54270548
0.8686803 0.0077010291 0.54264158
0.87128407 0.0078395661 0.54257751
0.87389576 0.0079785325 0.54251325
0.87651539 0.0081179114 0.54244876
0.88046074 0.0083278269 0.5423516
0.88442206 0.0085385991 0.54225409
0.88707989 0.0086794598 0.54218155
0.8897683 0.0088199619 0.54208273
0.89216352 0.007989374 0.54247379
0.89453435 0.0071571069 0.54289967
0.89855945 0.007366851 0.54280257
0.90260118 0.0075774551 0.54270512
0.90530658 0.0077184378 0.54263997
0.90802044 0.0078598531 0.54257447
0.9107427 0.008001701 0.54250878
0.91347331 0.0081439922 0.54244298
0.91621238 0.008286722 0.542377
0.91895992 0.0084298952 0.54231077
0.92171597 0.0085735144 0.54224432
0.92450768 0.0087166661 0.54214758
0.92837906 0.0079407096 0.54250783
0.9322331 0.0071634334 0.5429033
0.93502867 0.007306051 0.54283732
0.93783307 0.0074491049 0.5427711
0.94064617 0.0075926175 0.5427047
0.94346821 0.0077365716 0.54263806
0.94629902 0.0078809895 0.54257131
0.53915179 0.011788902 0.54027706
0.54109561 0.010912348 0.54123259
0.54431659 0.0098782051 0.5425604
0.56587595 0.01056716 0.54284292
0.56915641 0.010210838 0.54227155
0.57177806 0.010086996 0.54180098
0.57467407 0.010253899 0.54132962
0.57749295 0.010426426 0.5410316
0.58023947 0.010604506 0.54090005
0.5835427 0.010555042 0.54093397
0.586128 0.0112513 0.54044652
0.58926553 0.010396102 0.54104394
0.59316629 0.010116681 0.54123402
0.59558749 0.010006694 0.54131496
0.59839898 0.010186245 0.54118872
0.60178137 0.010135269 0.5412237
0.60443735 0.010838902 0.54073107
0.60746229 0.010497029 0.54096949
0.61014122 0.011204249 0.54047424
0.6133666 0.01033533 0.54108131
0.61624599 0.010517608 0.5409531
0.61931527 0.010172816 0.54119372
0.62279189 0.01012175 0.54122871
0.62570739 0.010304706 0.54110014
0.62863594 0.010488476 0.54097098
0.63157499 0.010672906 0.54084134
0.63452721 0.010858161 0.54071122
0.63725895 0.010210993 0.54116321
0.64023268 0.01039594 0.54103327
0.64397967 0.0098078586 0.5414418
0.64638972 0.010230798 0.54114741
0.6495735 0.0098785041 0.54139316
0.65242046 0.010603632 0.54088533
0.65562832 0.010250583 0.54113162
0.65850061 0.010979524 0.54062116
0.66173279 0.010625714 0.54086798
0.66420412 0.011054561 0.54056746
0.66703069 0.010395812 0.54102755
0.67012322 0.010584712 0.54089475
0.67357177 0.0096813925 0.54152596
0.67651695 0.010417119 0.54101074
0.67921007 0.010301389 0.54109108
0.68235165 0.010491539 0.54095739
0.68550491 0.010682392 0.54082316
0.68822879 0.010565808 0.54090416
0.69079053 0.011001728 0.54059875
0.69476807 0.01039577 0.5410217
0.69797176 0.010587893 0.54088658
0.70090592 0.0099145519 0.54135698
0.7035116 0.010353121 0.54104972
0.70629466 0.010235336 0.5411315
0.7095468 0.010428571 0.5409956
0.71281123 0.010622537 0.54085922
0.71562672 0.010503864 0.5409416
0.71828383 0.010947093 0.540631
0.72128487 0.01026569 0.54110694
0.72459912 0.010460785 0.54096985
0.72792602 0.010656617 0.54083216
0.73048395 0.0096556693 0.5415318
0.73366952 0.010417705 0.5409981
0.73655528 0.010297833 0.54108131
0.73945129 0.010176906 0.54116529
0.7426765 0.010944568 0.54062766
0.74559414 0.010824899 0.54071069
0.74868572 0.010131386 0.54119515
0.75211322 0.01032934 0.5410558
0.75440693 0.010461825 0.54096276
0.75670731 0.010594689 0.5408693
0.76033276 0.010218428 0.54113179
0.76331031 0.010096295 0.54121661
0.76629865 0.0099730697 0.54130214
0.76964086 0.01075262 0.54075617
0.77265185 0.010630691 0.54084074
0.77500439 0.010765271 0.54074615
0.77819455 0.010059403 0.5412392
0.78174776 0.010260709 0.54109758
0.78412586 0.010395436 0.54100281
0.78770709 0.010598326 0.54086018
0.79130244 0.01080202 0.54071695
0.79334283 0.010023059 0.54126143
0.79643673 0.0098974956 0.54134864
0.79991311 0.010690815 0.54079288
0.80303097 0.0105666 0.54087913
0.80547106 0.0107035 0.54078281
0.80861872 0.010577861 0.54085773
0.81245089 0.010189597 0.54114079
0.81491804 0.010326649 0.54104441
0.81739259 0.010464114 0.54094768
0.81987458 0.010601997 0.5408507
0.82376516 0.010211539 0.54112309
0.82696778 0.010084785 0.54121101
0.82947743 0.010222828 0.54111397
0.83199465 0.010361288 0.54101664
0.83522797 0.010233457 0.54110539
0.83832109 0.010708571 0.54077232
0.84088087 0.010847984 0.54065454
0.84428138 0.010115871 0.54118562
0.84684259 0.010255333 0.54108751
0.8506999 0.010465386 0.54093969
0.85457307 0.010676299 0.54079139
0.85716581 0.010817481 0.54069209
0.85933721 0.010008509 0.54125762
0.86194336 0.010148998 0.5411588
0.86528587 0.010018596 0.54124928
0.86849356 0.010501372 0.54091084
0.87172717 0.010986473 0.54055685
0.8746503 0.009897884 0.54133171
0.87730253 0.010039398 0.54123217
0.8799631 0.010181352 0.54113227
0.88263196 0.010323752 0.54103202
0.88665181 0.010538239 0.54088116
0.89068848 0.01075363 0.54072964
0.89339083 0.010897819 0.54062819
0.89563614 0.010072375 0.54120523
0.8983528 0.010215839 0.5411042
0.90107799 0.010359751 0.54100299
0.90381169 0.010504125 0.54090142
0.90732402 0.01037088 0.54097909
0.91158253 0.0099600032 0.54128033
0.91434819 0.010104537 0.54117864
0.91712266 0.010249539 0.54107666
0.91990602 0.010394999 0.54097426
0.9226982 0.010540925 0.54087156
0.9254992 0.01068732 0.54076868
0.92830926 0.010834177 0.54066533
0.93140018 0.009711368 0.5414502
0.93486738 0.010211342 0.54109967
0.93770611 0.010358148 0.54099631
