# .PCD v0.7 - Point Cloud Data file format
VERSION 0.7
FIELDS x y z
SIZE 4 4 4
TYPE F F F
COUNT 1 1 1
WIDTH 668
HEIGHT 1
VIEWPOINT 0 0 0 1 0 0 0
POINTS 668
DATA ascii
0.74960315 -0.027182661 0.53597975
0.75080186 -0.027201645 0.53637314
0.75421858 -0.027406681 0.53613317
0.79103822 -0.027153397 0.53452015
0.79276186 -0.027063362 0.53613538
0.62790769 -0.025772028 0.53696179
0.69459045 -0.025898922 0.53624785
0.69705582 -0.026514176 0.53675365
0.76110399 -0.026594773 0.53636503
0.75561595 -0.027277902 0.53795284
0.75752449 -0.027232623 0.53926027
0.76106894 -0.027364288 0.53974223
0.76341212 -0.027477287 0.53982669
0.78150773 -0.027445346 0.53813058
0.78393823 -0.027560692 0.53821355
0.78764522 -0.027696496 0.5387044
0.79073554 -0.027822984 0.53899312
0.79332542 -0.027599938 0.5386557
0.79512167 -0.027970428 0.53969419
0.80876589 -0.027465656 0.53980541
0.61624086 -0.0240498 0.53745121
0.61913037 -0.024093423 0.53849453
0.62258768 -0.024497364 0.53886318
0.62525618 -0.025147339 0.53816319
0.69280583 -0.02407263 0.53727907
0.69471562 -0.024676194 0.53759736
0.69729626 -0.024895094 0.53847283
0.70015812 -0.025370946 0.53880131
0.7032246 -0.026358174 0.53870267
0.70620799 -0.026258176 0.53860199
0.70810878 -0.026324013 0.53892601
0.72748566 -0.024615265 0.53870666
0.72921991 -0.024640145 0.53928739
0.75508821 -0.024761729 0.53988725
0.76363921 -0.026558004 0.53787839
0.76644027 -0.026562953 0.53913641
0.7845242 -0.02507391 0.53987497
0.78622407 -0.024001231 0.53975743
0.79113001 -0.024218988 0.53993076
0.79484802 -0.026939938 0.53822255
0.79649264 -0.026926126 0.5391041
0.79813999 -0.026912296 0.53998727
0.61640942 -0.022597199 0.53801984
0.61924028 -0.022545349 0.5389691
0.62230855 -0.022771714 0.53934097
0.62476707 -0.022943577 0.53960669
0.69512254 -0.022884328 0.53937423
0.6972059 -0.022982316 0.53945327
0.72796041 -0.023507645 0.53890002
0.7291171 -0.023523381 0.53928739
0.61682576 -0.019870017 0.53939658
0.61489886 -0.016893726 0.53835148
0.61681968 -0.016912738 0.539047
0.61869872 -0.016429361 0.53974408
0.614622 -0.01388758 0.53835148
0.6165424 -0.013902386 0.539047
0.61846733 -0.013917228 0.53974408
0.79704553 -0.028000992 0.54031157
0.80387169 -0.027077291 0.54111028
0.80631262 -0.027270999 0.54045951
0.70160723 -0.024198642 0.54028815
0.70382488 -0.024230387 0.54104638
0.70660532 -0.02427019 0.54199696
0.70916277 -0.026779627 0.54023325
0.73074335 -0.024540944 0.54089713
0.73348683 -0.024555856 0.54203796
0.73523355 -0.024580749 0.54262435
0.73805386 -0.024693877 0.54290873
0.75750279 -0.024795977 0.54068297
0.76104438 -0.024920713 0.54116845
0.76373744 -0.024996411 0.54171288
0.76678312 -0.024718188 0.54215539
0.76931047 -0.024034902 0.54255128
0.78578585 -0.025091726 0.54028279
0.78780115 -0.024779752 0.54047728
0.79046655 -0.024893258 0.54063386
0.79375786 -0.024695685 0.54104537
0.79693598 -0.024888441 0.54178214
0.79925495 -0.025559217 0.54208457
0.8014428 -0.026884563 0.54175788
0.80885524 -0.024766633 0.54277557
0.62285364 -0.021063734 0.54051864
0.62532294 -0.022213837 0.54040974
0.69219732 -0.021489985 0.54093176
0.69470227 -0.021659663 0.54052997
0.69733071 -0.021762121 0.54079998
0.70134699 -0.022460369 0.54120672
0.70371091 -0.022514898 0.54180348
0.70650476 -0.023178503 0.54199696
0.72869468 -0.021631207 0.54117304
0.73072755 -0.02222226 0.54176593
0.73362416 -0.023476282 0.5417881
0.73619652 -0.023547225 0.54232055
0.73902237 -0.023658063 0.54260451
0.75713956 -0.02224813 0.54151058
0.7600807 -0.022696991 0.54193628
0.76267052 -0.023870572 0.5410555
0.7656306 -0.02398495 0.54134351
0.78808326 -0.021944094 0.54158688
0.79072064 -0.022240378 0.54178941
0.79354477 -0.022312507 0.54234946
0.79501492 -0.022939367 0.54263026
0.61967605 -0.019897347 0.54049331
0.6226421 -0.019223083 0.54073393
0.62412441 -0.019064268 0.54104537
0.69199872 -0.019333705 0.54093182
0.69464755 -0.019522 0.54036903
0.69713116 -0.019595241 0.54079998
0.70142865 -0.019711949 0.54163897
0.70349324 -0.019599095 0.54235101
0.72791207 -0.019394897 0.54097891
0.73032761 -0.019350896 0.54244941
0.75746983 -0.019621333 0.5421831
0.75963634 -0.019530352 0.54290277
0.7880072 -0.019414216 0.54187101
0.79094684 -0.01928339 0.5421263
0.7937724 -0.019349486 0.542687
0.61989921 -0.017068559 0.54032201
0.62286645 -0.016356476 0.5407443
0.69170082 -0.01609927 0.54093182
0.69442099 -0.016289968 0.54028857
0.69683182 -0.016344927 0.54080003
0.70112824 -0.01645055 0.54163897
0.70301229 -0.016311985 0.54228991
0.72795707 -0.01645463 0.54124916
0.730416 -0.016723383 0.54256076
0.75755811 -0.016651098 0.54230285
0.75937265 -0.016667085 0.54290283
0.7876426 -0.016828055 0.54183
0.79067564 -0.016338974 0.5421263
0.79350066 -0.016399009 0.542687
0.61991513 -0.013928387 0.54026848
0.62237251 -0.013694462 0.54083717
0.62453914 -0.013016497 0.54139709
0.69145256 -0.013403921 0.54093176
0.69453424 -0.013487363 0.54035318
0.69678199 -0.013818132 0.54086292
0.70125037 -0.012974544 0.54179066
0.7027902 -0.013474254 0.54230332
0.72806615 -0.013399651 0.54149759
0.73034072 -0.013217299 0.54264426
0.7574861 -0.013057355 0.54238862
0.7591089 -0.013803801 0.54290277
0.7904045 -0.013394555 0.5421263
0.79322898 -0.013448524 0.542687
0.61688179 -0.011246913 0.54069221
0.61928856 -0.011260806 0.54156649
0.62260044 -0.011350262 0.54209566
0.62461352 -0.010877928 0.5426501
0.68975109 -0.011014879 0.54261345
0.69197226 -0.010964773 0.54223502
0.69431198 -0.01123219 0.54230171
0.69699496 -0.011141561 0.54249477
0.70029837 -0.010883939 0.54279774
0.72238934 -0.010747033 0.54199535
0.72504711 -0.010892323 0.54158539
0.72787577 -0.01034954 0.542557
0.68007123 0.0089212153 0.54113895
0.68254328 0.0089695975 0.54231036
0.73640049 -0.024597367 0.54301614
0.80023003 -0.02485718 0.54355204
0.80332196 -0.024383601 0.54385531
0.80640584 -0.024579011 0.54342109
0.70662332 -0.0219498 0.54335099
0.73343289 -0.021618303 0.54342568
0.73639101 -0.021585455 0.54402852
0.73978275 -0.022191016 0.54409498
0.74196053 -0.02369801 0.54358852
0.76100725 -0.021262657 0.54330355
0.76352841 -0.021957507 0.54326719
0.76635844 -0.022047108 0.54368854
0.7684567 -0.022109922 0.54403758
0.79688102 -0.022372337 0.54325026
0.79981059 -0.022370577 0.5445503
0.70440912 -0.020764381 0.54326409
0.70645565 -0.019583134 0.54364085
0.70814461 -0.020332932 0.54392421
0.73356563 -0.01927398 0.54354322
0.7365756 -0.019558286 0.5442853
0.73979014 -0.019558873 0.54464197
0.76084888 -0.019543322 0.54330355
0.76305866 -0.019621149 0.54352283
0.76653922 -0.019029578 0.54383993
0.76803613 -0.020340681 0.54429394
0.79693592 -0.019252906 0.54353714
0.79971993 -0.019553466 0.54485697
0.70405811 -0.016953632 0.54326409
0.70647985 -0.016468838 0.54375774
0.73355108 -0.016592149 0.5436216
0.73670548 -0.01665486 0.54435337
0.73928779 -0.016712558 0.5448916
0.76119208 -0.016683098 0.54350424
0.7635318 -0.01677452 0.54359615
0.76644039 -0.016295878 0.54389036
0.79679078 -0.016438838 0.54363275
0.79962671 -0.016414298 0.54502112
0.70426226 -0.013146619 0.54345477
0.70607805 -0.013181071 0.54386538
0.73197675 -0.012111244 0.54323006
0.73328018 -0.013359845 0.54379487
0.73652774 -0.01311777 0.54454446
0.73911536 -0.013567929 0.54493105
0.76087523 -0.01324304 0.54350424
0.76378441 -0.013115359 0.54365474
0.76653981 -0.013583221 0.54400557
0.79664302 -0.013498429 0.54351586
0.79935396 -0.013452856 0.54502106
0.70195568 -0.010892553 0.54336774
0.70364666 -0.010516363 0.54507154
0.70550162 -0.010781553 0.5458613
0.72802997 -0.010841444 0.5432477
0.73070967 -0.010275267 0.54438919
0.73364943 -0.010294391 0.54532754
0.73652864 -0.0098308688 0.5454936
0.73935312 -0.0099093765 0.54578483
0.75541162 -0.010787778 0.54312164
0.75722051 -0.010796704 0.54372144
0.76065075 -0.01038258 0.54460108
0.76413214 -0.010375633 0.54483891
0.76722527 -0.010475197 0.54500818
0.7690115 -0.009907038 0.54561567
0.78790349 -0.010818671 0.54349267
0.79002547 -0.010275683 0.54384857
0.79326141 -0.010377368 0.54401904
0.79659617 -0.010410113 0.54492354
0.79921609 -0.01101388 0.54575467
0.62050116 -0.0084317233 0.54525363
0.62260824 -0.0084689818 0.54573655
0.62459219 -0.0085647963 0.54559779
0.72928804 -0.0084240306 0.5457086
0.79640633 0.0055560265 0.54533863
0.79835963 0.0043189595 0.54522908
0.68535429 0.007070207 0.5457136
0.79710948 0.0078982301 0.54528391
0.66866386 0.011501737 0.54369861
0.67079794 0.011171564 0.5444383
0.67310274 0.01125679 0.54494596
0.67654842 0.011451099 0.54493493
0.67950785 0.011375113 0.54473674
0.68281126 0.011328745 0.54496241
0.68544883 0.0095430454 0.54470766
0.70661312 -0.010787234 0.5462445
0.73641175 -0.010839651 0.54651833
0.73955619 -0.010966512 0.54648018
0.7411136 -0.0099171326 0.54637796
0.79962611 -0.010180424 0.54638231
0.80111712 -0.0097684981 0.54711366
0.62569296 -0.0085099665 0.5465759
0.62812626 -0.0085191168 0.54746455
0.63038695 -0.0084980177 0.54857922
0.64430761 -0.0080356244 0.54871929
0.64688075 -0.0081341695 0.54876566
0.6500389 -0.0083254781 0.54812992
0.65283442 -0.0084562544 0.54794681
0.65525758 -0.0085256752 0.54822075
0.65925682 -0.0081724878 0.54817438
0.66175592 -0.0082099596 0.54706693
0.66480106 -0.0079738926 0.54715699
0.66740036 -0.0079824124 0.54808116
0.67029583 -0.0081145065 0.54789448
0.67402458 -0.00837343 0.5467729
0.67695934 -0.0085075162 0.54658163
0.67964733 -0.0082207825 0.54784453
0.68245339 -0.0078800628 0.5479207
0.68643212 -0.0080587864 0.54766822
0.68883705 -0.0077517219 0.54810882
0.6918264 -0.0078024864 0.54874027
0.6948626 -0.0079371054 0.54855108
0.69823986 -0.008199363 0.547216
0.70076644 -0.0083342707 0.54683006
0.70363593 -0.0084391767 0.54687452
0.70620984 -0.0078828409 0.54799366
0.70999014 -0.0074973078 0.54783189
0.71245456 -0.0075360425 0.54836285
0.71413845 -0.0075408821 0.54894352
0.72463453 -0.008084923 0.54738551
0.7267195 -0.0082208961 0.54679513
0.73097938 -0.0080699325 0.54710943
0.733603 -0.0075690122 0.54752606
0.73648375 -0.0072979685 0.54851294
0.68673515 -0.00496215 0.5485965
0.80315053 -0.0038440449 0.54795074
0.80051333 -0.0013413368 0.54857922
0.80273104 -0.0023276918 0.54821265
0.68685865 0.0050504142 0.54741538
0.70904207 0.0040286374 0.54850709
0.79676026 0.0045637488 0.54753387
0.79832208 0.0045392429 0.54768968
0.6144616 0.008042343 0.54870671
0.61536396 0.008971164 0.54822278
0.68571126 0.0072076283 0.54734832
0.68721658 0.0083209081 0.54826623
0.76847833 0.0075642355 0.54778993
0.79590237 0.0069219316 0.54732621
0.79942006 0.0080837812 0.54797781
0.61662382 0.009007779 0.54897213
0.66686469 0.010745866 0.54668808
0.66923964 0.01066347 0.54631168
0.67414534 0.010551875 0.54620874
0.67651713 0.010610431 0.54745477
0.67944872 0.010603247 0.54807866
0.68262899 0.010499757 0.54765332
0.68540478 0.010445701 0.54769969
0.6875996 0.0098627564 0.54767442
0.79629815 0.010531871 0.54826564
0.60960996 -0.0084151924 0.55065203
0.62473917 -0.0067540435 0.55114663
0.62844861 -0.0071020448 0.55164492
0.63217151 -0.0083961841 0.55029142
0.63400322 -0.0076338118 0.55108386
0.63760602 -0.0074996892 0.55134797
0.64205962 -0.0079088463 0.5490793
0.65620679 -0.0084382435 0.54945654
0.65761852 -0.0085040182 0.54936653
0.68313622 -0.0084988158 0.54906511
0.68495047 -0.0085364645 0.54939574
0.68794382 -0.0086722486 0.54921031
0.70796114 -0.0083589694 0.54932421
0.70989007 -0.0083232019 0.55041671
0.71605551 -0.0075782379 0.54928374
0.71854287 -0.0076173032 0.54981995
0.72116637 -0.0077529037 0.54943454
0.73422313 -0.008245701 0.54935002
0.73698342 -0.007958876 0.55046183
0.73925972 -0.0072081434 0.55044252
0.7410146 -0.007212711 0.55103928
0.62492502 -0.0041543194 0.55082798
0.62710458 -0.0030770518 0.55128735
0.68627942 -0.0032396843 0.54972732
0.68811238 -0.0045086131 0.55070859
0.70743114 -0.0049064411 0.55114758
0.76868379 -0.0035539598 0.55181855
0.80532563 -0.003643706 0.55078232
0.62330717 -0.00096104009 0.55109978
0.62545288 -0.0011521543 0.55117232
0.62701195 -0.0020715012 0.55128735
0.68592662 -0.0012349193 0.55018187
0.6874845 -0.0020527176 0.55142403
0.76912367 -0.00090989441 0.55082697
0.79928017 -2.9440282e-05 0.54962307
0.80247074 -0.00068101345 0.54994053
0.80504698 -0.0021436678 0.55091274
0.6858595 0.0012557356 0.55072677
0.68741721 0.0022449375 0.55184817
0.70767349 0.0020457434 0.55018997
0.70854515 0.0018165278 0.5514977
0.76708126 0.0017418792 0.55076903
0.76820755 0.0016164721 0.55181855
0.79372239 0.0026330489 0.55138063
0.79671955 0.0018627956 0.55024314
0.79917127 0.0011527017 0.54962307
0.80194974 0.00088071002 0.55069762
0.61356896 0.004994988 0.55127764
0.68606621 0.0039385478 0.55001706
0.68768972 0.0047412245 0.55128497
0.71002311 0.0039191488 0.54958439
0.71261108 0.0046748607 0.55065286
0.76376981 0.0045284326 0.55109894
0.76658088 0.0046198908 0.55107713
0.76856959 0.0032805842 0.5513134
0.79728079 0.0043816655 0.55003768
0.79878509 0.0047772191 0.55048323
0.61420035 0.0066218935 0.55047959
0.6162014 0.007760955 0.55079317
0.61819661 0.0082264338 0.55179077
0.68642002 0.0069035902 0.55010575
0.68807358 0.0078622624 0.55053252
0.69025761 0.0085103298 0.55119926
0.70934135 0.0069034165 0.55029011
0.71180183 0.0068921386 0.55082494
0.71631551 0.0079357186 0.55146468
0.76407439 0.0067626787 0.55059481
0.76685667 0.0067411195 0.55107355
0.77058852 0.0076890811 0.54974341
0.77164543 0.00778643 0.55111933
0.79734522 0.0070548304 0.54920459
0.79909581 0.0068635307 0.55082321
0.80135584 0.0072050621 0.55192381
0.61723334 0.0090639163 0.54976553
0.61891675 0.0091128759 0.55076718
0.68875211 0.010531635 0.54949623
0.79362613 0.0096296454 0.55086356
0.79637259 0.0095620472 0.55071366
0.79935765 0.0100579 0.55030203
0.61100525 -0.0082565825 0.55276024
0.62808925 -0.0070427293 0.55208689
0.63201374 -0.0060643842 0.5533759
0.6349895 -0.0077284593 0.55302662
0.63731241 -0.0072129467 0.55404079
0.6406101 -0.0063541485 0.55383748
0.64309263 -0.0063595455 0.55474728
0.68330723 -0.0060360925 0.55257988
0.68511832 -0.0060700271 0.55291492
0.60822564 -0.0030144784 0.55495751
0.61028552 -0.0040920032 0.55476886
0.62622148 -0.0050189928 0.55282068
0.62820846 -0.0045974976 0.55368066
0.63175577 -0.0039670486 0.55314183
0.63486803 -0.0040867808 0.55411178
0.63757694 -0.0044705938 0.55379862
0.64054579 -0.0043397639 0.5536887
0.6860922 -0.0059803268 0.55418271
0.68855536 -0.0046500969 0.55350178
0.69083232 -0.0047025164 0.55381531
0.70922208 -0.0049754633 0.55292571
0.7127341 -0.0044130199 0.55253315
0.71511972 -0.004358029 0.55394644
0.73364782 -0.0037987405 0.55298352
0.73587477 -0.0041953637 0.55443925
0.77008742 -0.0034246813 0.55364579
0.79911649 -0.0044559049 0.55258894
0.80222845 -0.004447001 0.55372828
0.80677563 -0.0035101466 0.55267
0.80786318 -0.0034099775 0.55408573
0.60804451 -0.0010474965 0.55495751
0.61001325 -0.0011349926 0.55476886
0.6282143 -0.0016712715 0.55288649
0.63123536 -0.0014705118 0.55381721
0.63325 -0.0014769635 0.55446494
0.63746381 -0.002090374 0.55484718
0.68883103 -0.0016463982 0.55365837
0.70748931 -0.0012372166 0.55270493
0.70896733 -0.0017152627 0.55329978
0.71225166 -0.0015786132 0.55356491
0.71527737 -0.0016053973 0.55430114
0.77026767 -0.00046562261 0.55266917
0.7719754 -0.0011555764 0.55401021
0.80615759 -0.001384163 0.55306023
0.80775386 -0.0022229538 0.55408573
0.6084094 0.0018795358 0.55491859
0.61028266 0.00076603785 0.5541935
0.61203438 0.00071751908 0.55429125
0.62031782 0.0014673161 0.55460554
0.62193012 0.0018638421 0.55408919
0.62579274 0.0015401914 0.55371535
0.62827659 0.00073371257 0.55379039
0.6308558 7.7968609e-05 0.55411166
0.68667018 0.0012912176 0.55278409
0.688236 0.0012101351 0.55367738
0.70969009 0.0013836209 0.55245125
0.71225131 0.0016542333 0.55324632
0.71529937 0.0018183496 0.55428249
0.76980883 0.0014999217 0.55370444
0.77169675 8.963899e-05 0.55497074
0.79080057 0.0028113367 0.55250901
0.79661697 0.0027498396 0.55349749
0.80346555 0.00092081574 0.55265915
0.80446625 0.00061493949 0.55391449
0.60834974 0.0048235441 0.55490565
0.61434102 0.0041202647 0.55275154
0.61615038 0.0049284967 0.55389476
0.62626064 0.0042799967 0.55464542
0.62906677 0.0042024646 0.55468547
0.63166583 0.0048660524 0.55452526
0.63385272 0.0045598755 0.55460548
0.64246362 0.0058690556 0.55492961
0.68883014 0.0043462059 0.55341703
0.69058025 0.0055789528 0.55430794
0.71357143 0.0059529198 0.55299753
0.71540326 0.0046750139 0.55295676
0.71867985 0.0042812396 0.5540818
0.72834885 0.0034239388 0.55354863
0.73007178 0.0034317544 0.55414248
0.73227328 0.0033823249 0.55425191
0.73649961 0.0043381844 0.55378479
0.76742309 0.004547264 0.55232286
0.76952058 0.0045984555 0.55347788
0.77137905 0.0035393485 0.55497074
0.80014229 0.0043344977 0.55249178
0.8015852 0.004467397 0.55437016
0.61673325 0.0066061513 0.55322182
0.61922902 0.0078725768 0.55366755
0.62142402 0.0073563019 0.55408943
0.62947142 0.0070905155 0.55345714
0.63093418 0.0071014925 0.55399716
0.63395542 0.0060421526 0.55431092
0.6415146 0.0073654754 0.55434209
0.64320838 0.0081878183 0.55376881
0.64529866 0.0087975068 0.55432081
0.68870252 0.0071138237 0.55307722
0.6910274 0.0080617061 0.55355799
0.71313697 0.0070151109 0.55256301
0.71459258 0.007053752 0.55338764
0.7696566 0.0068596764 0.55314207
0.77196747 0.0073919552 0.55325222
0.79997909 0.0061062416 0.55249178
0.80224943 0.0068985648 0.55403125
0.8005752 0.0096271634 0.55244297
0.80186051 0.0096378345 0.55286455
0.6445238 -0.0062746312 0.55614519
0.64620751 -0.0063075498 0.55647194
0.61109412 -0.0048607499 0.5559718
0.61272073 -0.0044374694 0.55715412
0.64161777 -0.0036972868 0.55545455
0.64312708 -0.004308179 0.55683005
0.64639252 -0.0041705202 0.55757952
0.6501202 -0.0052925879 0.55794215
0.68930912 -0.0059862803 0.55532533
0.69208372 -0.0045984327 0.55604857
0.69384861 -0.0048956885 0.55728155
0.71007097 -0.0056554256 0.55551219
0.71278071 -0.0056493813 0.55656672
0.71597683 -0.0049391389 0.55665421
0.71753174 -0.0041532782 0.55690819
0.73700559 -0.0036323832 0.55587435
0.73859048 -0.0037449123 0.55717427
0.77219284 -0.0032307636 0.55638659
0.80514759 -0.0043373383 0.55585903
0.80851227 -0.0037685886 0.55674857
0.81040078 -0.0031762486 0.55738926
0.61154079 -0.0013562482 0.55556631
0.61269879 -0.0014477321 0.55700237
0.63467801 -0.0013235003 0.55551308
0.6380012 -0.0013300581 0.55593461
0.64050198 -0.0016533164 0.55626869
0.64232635 -0.0013797348 0.55694985
0.6898936 -0.00065766892 0.55570734
0.69132894 -0.0018943771 0.55660707
0.71652567 -0.001269986 0.55595225
0.71747214 -0.0016788023 0.55712545
0.72454572 -0.00046434873 0.55788404
0.72718781 -0.00058080326 0.55751997
0.73154682 -0.0014634754 0.55546451
0.73414081 -0.0012647591 0.55647409
0.7361908 -0.001735867 0.55705851
0.77338123 -0.0010260902 0.55584037
0.77443564 -0.00092897582 0.55721295
0.80875033 -0.0012548922 0.55631852
0.81029147 -0.0019892249 0.55738926
0.60870957 0.001906557 0.55530989
0.61304474 0.00053484034 0.55614966
0.61792839 0.0021707385 0.5559873
0.61952984 0.0025677357 0.55547589
0.62851977 0.0017670891 0.55525458
0.63139623 0.0014281773 0.5561651
0.63452262 0.0013130332 0.55658954
0.63722795 0.00016739691 0.55723286
0.64090508 0.0012761614 0.5571574
0.64206737 0.0010476277 0.55751449
0.68940353 0.0012503251 0.55605614
0.69087487 0.0018496986 0.55684012
0.71636081 0.0012499191 0.55603915
0.71840441 0.0022776979 0.55683041
0.72995269 0.0014749111 0.55683303
0.73393607 0.001347102 0.55670178
0.73537934 0.0019371994 0.55754274
0.77096182 0.0024495178 0.55547297
0.77233022 0.0012306944 0.55665553
0.79786861 0.0029026226 0.55554026
0.79858714 0.0029687996 0.55647558
0.80613565 0.00096772006 0.55611134
0.80758208 0.0011009485 0.55799437
0.61709619 0.004319285 0.55574989
0.61976737 0.0045691254 0.55572641
0.62658155 0.0040006102 0.555323
0.62842435 0.0037622382 0.55514479
0.63130128 0.0034989438 0.55591643
0.6348511 0.0042089173 0.55655479
0.6371789 0.0047390852 0.5575614
0.64068353 0.0044651888 0.55567616
0.64310348 0.0044872826 0.55666316
0.6898765 0.0040853913 0.55524158
0.69141507 0.004703349 0.55662787
0.69319075 0.0058193994 0.55770636
0.72081578 0.0043796408 0.55578375
0.7341069 0.0034500505 0.55553317
0.73594332 0.0035178873 0.55681652
0.77069724 0.0053219781 0.55547297
0.77221721 0.0044426997 0.55674529
0.79930562 0.0030349765 0.55741096
0.80302811 0.0046002958 0.55624855
0.80416465 0.0041093887 0.5576573
0.61916417 0.0065480839 0.55547589
0.62695158 0.0072956649 0.55500448
0.62704396 0.0062922137 0.55500448
0.63858503 0.0066162227 0.55641949
0.63918102 0.0080390014 0.55553406
0.64410383 0.0072455555 0.55615789
0.64555746 0.0079869209 0.55671501
0.69166702 0.0073109358 0.55608469
0.69381618 0.0075512505 0.55736911
0.77261734 0.0066762278 0.55615956
0.77483541 0.0070745843 0.55691844
0.8032257 0.0064052641 0.55671811
0.80517411 0.0074468851 0.55564058
0.80739653 0.0074313227 0.55601954
0.61247879 -0.0057746801 0.55840355
0.64447534 -0.0035257996 0.55824691
0.64719582 -0.0038783834 0.55877417
0.64918673 -0.00419081 0.55841231
0.69480217 -0.0040228912 0.55928993
0.69711006 -0.0043703476 0.56020415
0.71860594 -0.0043636551 0.55848068
0.72099322 -0.0038590122 0.55929041
0.73995155 -0.0036195517 0.55894613
0.74102366 -0.0040826141 0.56027502
0.77359635 -0.0031014851 0.55821377
0.77429813 -0.0030368457 0.55912733
0.77798855 -0.0030361759 0.56037456
0.80936652 -0.0042282068 0.55842119
0.81111342 -0.0036189838 0.55919135
0.64365166 -0.0015252889 0.55870414
0.64617032 -0.0013406485 0.55940861
0.64898616 -0.0010868654 0.55883116
0.69217277 -0.0004477473 0.55867434
0.69386703 -0.0016933543 0.55981749
0.69701964 -0.0025477125 0.560642
0.71880937 -0.0011371 0.55876482
0.72114009 -0.0015313779 0.55933255
0.72692329 -0.0015613001 0.55867726
0.73701847 -0.00099398172 0.5593096
0.73952955 -0.0022063211 0.56003332
0.77575058 -0.0016685199 0.55952543
0.77865899 -0.00076303992 0.56033337
0.81165022 -0.0014885293 0.55955905
0.6326223 0.0014010603 0.55804604
0.63681853 0.0017975217 0.55833113
0.64337158 0.0011347114 0.558864
0.64620054 0.0012477571 0.55981636
0.6920678 0.0015456511 0.559111
0.69379687 0.0019913404 0.56025445
0.71895146 0.0011629531 0.55884349
0.72144145 0.0021107828 0.55866653
0.72460198 0.0017755108 0.55840087
0.72693056 0.001703938 0.55835807
0.73481655 0.00035977311 0.55826747
0.7367081 0.0015165176 0.55939013
0.73828292 0.0027136882 0.56083632
0.773471 0.0021012663 0.55867052
0.7750178 0.0014516375 0.56008834
0.77714133 0.00048082924 0.56087327
0.80866688 0.0012008696 0.55940664
0.810323 0.0012379319 0.56030577
0.6365875 0.0033260016 0.55844092
0.644467 0.0037711828 0.55849159
0.64614952 0.0041789142 0.55976236
0.69248319 0.0043254793 0.55863494
0.69435638 0.0049013738 0.55966312
0.73764199 0.0036743456 0.55902791
0.73866117 0.0037682201 0.56035471
0.77320641 0.0049737268 0.55867052
0.77498925 0.0043355166 0.55972528
0.77796882 0.0038772291 0.56058311
0.80038333 0.0031342423 0.55881393
0.80267954 0.0047059562 0.55950677
0.80560756 0.0042422879 0.55953574
0.80761802 0.0043150224 0.56090266
0.64495361 0.0060983938 0.55817103
0.64655495 0.0070293723 0.55908179
0.69407129 0.006978069 0.55898076
0.77310061 0.0061227051 0.55867052
0.77522987 0.0065301931 0.55951327
0.8058787 0.0064838175 0.55829585
0.80846125 0.0065000057 0.55914968
0.69492948 -0.00082900934 0.56118
0.69644105 -0.00088542385 0.56110483
0.73891705 -0.00093004934 0.56158566
0.77629769 -0.0016939349 0.56186819
0.7802462 -0.00072851108 0.56120938
0.69392872 0.0015377528 0.56151259
0.69624418 0.001251581 0.56110483
0.73790526 0.0016607947 0.56131727
0.73855978 0.0014155398 0.56185961
0.77645445 0.0022673314 0.56137109
0.77847046 0.0013634155 0.56151932
0.73885953 0.0038877937 0.56172019
0.80306739 0.0043083886 0.56217295
0.80544204 0.004204025 0.56342471
