# .PCD v0.7 - Point Cloud Data file format
VERSION 0.7
FIELDS x y z
SIZE 4 4 4
TYPE F F F
COUNT 1 1 1
WIDTH 1455
HEIGHT 1
VIEWPOINT 0 0 0 1 0 0 0
POINTS 1455
DATA ascii
0.64040959 0.25558728 0.53583759
0.59814674 0.2597658 0.53630042
0.60019481 0.25915864 0.53669906
0.62981188 0.25957656 0.53682214
0.63168585 0.25853276 0.53546995
0.6335125 0.25829563 0.53652906
0.5991227 0.26238784 0.5349887
0.60047251 0.26264039 0.53632843
0.60173333 0.26536119 0.53559446
0.60240096 0.26749691 0.53502107
0.60376614 0.26909462 0.53546232
0.60522866 0.2709263 0.53532326
0.60650539 0.27104503 0.53692997
0.61723965 0.27490801 0.53513455
0.61957908 0.27534431 0.53623778
0.62342572 0.27647176 0.53459936
0.62790334 0.27853599 0.53537476
0.62865466 0.28090739 0.53500104
0.63138497 0.28062078 0.5355078
0.63393539 0.28062114 0.53561968
0.63697213 0.28117445 0.53629243
0.62906528 0.28330779 0.5348382
0.63093597 0.28328091 0.53648698
0.63696337 0.28271291 0.53694332
0.62886649 0.28633088 0.53494114
0.63068938 0.28655952 0.53676438
0.628901 0.28950796 0.53535283
0.63100845 0.2887657 0.53694099
0.62826318 0.2925733 0.53529423
0.62659204 0.29539126 0.53506082
0.62820059 0.29547933 0.53552908
0.95491427 0.037777442 0.53788495
0.95273113 0.040786687 0.5386681
0.95292568 0.043732554 0.53830665
0.9496901 0.046426415 0.53741777
0.95222992 0.046177723 0.53866827
0.94953787 0.049580805 0.53759396
0.95206189 0.049037065 0.53910601
0.94676852 0.053586684 0.5377425
0.949202 0.052885331 0.53881514
0.95193046 0.051969826 0.53928232
0.93897575 0.056122113 0.53766066
0.9406091 0.056228466 0.53893566
0.94310313 0.054926831 0.53878951
0.93798232 0.058335073 0.53770989
0.94042253 0.058233794 0.53893566
0.92898363 0.062605083 0.53824705
0.93097544 0.062706739 0.5392164
0.93463129 0.06073742 0.53817946
0.93743312 0.06086868 0.53937852
0.94103569 0.060269814 0.53916162
0.92600346 0.065165393 0.53787261
0.92811221 0.063944094 0.53883982
0.92061001 0.068976976 0.5376457
0.92295277 0.067100644 0.53846103
0.9248057 0.066548139 0.53957433
0.91710663 0.071091309 0.53803599
0.91900438 0.070775598 0.53936529
0.92143279 0.069053508 0.53868115
0.91440499 0.074078038 0.53800857
0.91660762 0.073530681 0.53882045
0.91803753 0.072946966 0.53941268
0.90531474 0.07767377 0.53748691
0.90763605 0.077339306 0.53787917
0.91020477 0.07700403 0.53807747
0.91322935 0.076685555 0.53833789
0.91621029 0.076044492 0.53929156
0.90212142 0.08020027 0.53821373
0.90447354 0.07932131 0.53847194
0.90748972 0.080026165 0.5394882
0.91013968 0.079901971 0.53932345
0.9128828 0.07890287 0.53915793
0.91526711 0.078131348 0.53955466
0.89853692 0.083017185 0.53882706
0.90200043 0.081501365 0.53821373
0.90433592 0.081656031 0.53967571
0.89526963 0.085787565 0.53835034
0.89887702 0.084045358 0.53973556
0.89051229 0.08880125 0.5378381
0.892506 0.08795467 0.53878033
0.88670272 0.091872126 0.53824258
0.88933158 0.09051498 0.53896803
0.88120604 0.094830438 0.53840327
0.88335657 0.094086871 0.53862077
0.88537711 0.093778349 0.53920078
0.87897074 0.098544195 0.53746843
0.88021398 0.097361721 0.53867865
0.8821665 0.097504616 0.53991199
0.87743843 0.10042372 0.5386132
0.86909211 0.10440744 0.53781742
0.87234163 0.10395251 0.53760642
0.87420428 0.10408691 0.53853685
0.87650484 0.10272676 0.53865933
0.86283278 0.10755771 0.53873169
0.86505455 0.10598209 0.53896177
0.86871195 0.10634879 0.53966528
0.87223029 0.10654913 0.53917551
0.87369382 0.10664877 0.53960645
0.86046433 0.1096172 0.53809166
0.86229932 0.10975535 0.53901392
0.86959362 0.10831603 0.53959692
0.87160033 0.10971659 0.53945982
0.87312186 0.10918231 0.53989077
0.8568148 0.11331087 0.53810167
0.85909349 0.11195073 0.53858429
0.86146915 0.11162028 0.53957784
0.86951256 0.11277683 0.5393132
0.87251925 0.11232713 0.53903455
0.874129 0.11329237 0.53927612
0.8539471 0.11487651 0.53745061
0.85642552 0.11570102 0.5385806
0.8589102 0.11652714 0.53971374
0.86954933 0.11596991 0.53902948
0.8710047 0.11542183 0.53867614
0.87390673 0.11549705 0.53906673
0.84832549 0.11953695 0.53779721
0.85052437 0.11971889 0.53920257
0.85316008 0.11819126 0.53730953
0.85586822 0.11819949 0.53886193
0.8696456 0.11853084 0.53874528
0.87150055 0.11834998 0.53928322
0.87430722 0.11886114 0.53896821
0.84132987 0.12153895 0.53794312
0.84324831 0.12045483 0.5396747
0.86882973 0.12229132 0.53746241
0.87187111 0.12124449 0.53832161
0.83374834 0.12596588 0.53847516
0.83525211 0.12484179 0.53889322
0.83828354 0.12382492 0.53878307
0.82978088 0.12782046 0.53770977
0.83182573 0.12747577 0.5386799
0.83521402 0.12609442 0.53965557
0.8243705 0.1314061 0.53729165
0.82637632 0.13055013 0.53860152
0.82969397 0.12938194 0.53932065
0.82443124 0.13327289 0.53791118
0.82542944 0.133368 0.53949475
0.82076198 0.13678925 0.538113
0.82306987 0.13600692 0.53907746
0.81561756 0.14051865 0.53783363
0.81739712 0.13975753 0.53834844
0.82025886 0.13909259 0.53870738
0.8225292 0.13991758 0.53990072
0.80880785 0.14315961 0.53778112
0.81092596 0.14254066 0.53864497
0.81451833 0.1416481 0.5387429
0.80567282 0.14620264 0.53787768
0.8087166 0.14539331 0.53877771
0.81078547 0.14497814 0.5393939
0.80335832 0.1491507 0.53761792
0.80531681 0.14832109 0.53890741
0.80761731 0.14773038 0.53959012
0.79732865 0.15218975 0.53801692
0.79968566 0.15145531 0.5383566
0.80239105 0.15075283 0.53887486
0.80513108 0.15053502 0.53999043
0.7947343 0.15556283 0.53767776
0.79642206 0.15438016 0.53895074
0.7856316 0.15820937 0.53780264
0.78755271 0.15720354 0.53853899
0.79063249 0.15692717 0.53894675
0.79259336 0.15713072 0.539554
0.78225541 0.16143733 0.53826535
0.78438342 0.16046476 0.53879172
0.78626418 0.15947038 0.53873819
0.77907991 0.16467056 0.53854835
0.78149146 0.16323414 0.53848284
0.7841785 0.16283429 0.53960061
0.77664399 0.16798627 0.53812498
0.77767777 0.16650224 0.53863442
0.76465148 0.17014329 0.53725541
0.766644 0.17035526 0.53857207
0.7698077 0.17032495 0.53932303
0.7725212 0.16987321 0.53864813
0.77519047 0.1692985 0.53858626
0.76326084 0.17245859 0.53861505
0.76663554 0.17152415 0.53929448
0.76942861 0.17185307 0.53982723
0.75866669 0.1764883 0.53764427
0.76061368 0.1757195 0.53880119
0.76211292 0.1745158 0.53934968
0.75513315 0.17859869 0.53865623
0.75648451 0.17733036 0.53972697
0.74925154 0.18229783 0.53828388
0.7516157 0.18124604 0.53820056
0.75384974 0.1813135 0.53924441
0.74546355 0.18528756 0.53853679
0.74842662 0.18432169 0.53864944
0.75119841 0.18398595 0.53945494
0.74098259 0.18819141 0.53788561
0.74257249 0.18745239 0.53863454
0.74470067 0.18661965 0.53918087
0.73956662 0.19055283 0.53855574
0.74109429 0.18931834 0.53930169
0.73691386 0.19409889 0.53852296
0.7397601 0.19309697 0.53899068
0.73366874 0.19689356 0.53797978
0.73572558 0.19630639 0.5389272
0.73824865 0.19586071 0.53993762
0.72538793 0.20067169 0.53799498
0.7265293 0.19991928 0.53933203
0.73078614 0.19901845 0.53779763
0.73298329 0.19898419 0.53902829
0.73647571 0.1990872 0.53980529
0.73803544 0.19815297 0.53993762
0.71936172 0.20349985 0.53748149
0.72198814 0.20310263 0.53830808
0.72403276 0.20212819 0.53926301
0.71543217 0.20599498 0.53810835
0.71818203 0.20497702 0.53857613
0.72125596 0.20484379 0.53944665
0.72412843 0.20452714 0.53947508
0.70974481 0.2099725 0.53722239
0.71238196 0.20866016 0.53781164
0.71456069 0.20792902 0.53883815
0.70763499 0.21244627 0.5375973
0.7099576 0.21146882 0.53820634
0.7116726 0.2107477 0.53917205
0.70483673 0.21484601 0.53709435
0.70673954 0.21452379 0.53834814
0.70862967 0.21310328 0.53891456
0.69872165 0.21824205 0.5384596
0.70059091 0.2180234 0.53808922
0.70371014 0.21767414 0.5380224
0.70636672 0.2170988 0.53895539
0.69460261 0.22128719 0.5382877
0.69728762 0.22006974 0.53901535
0.70062697 0.22020139 0.53945863
0.70368975 0.22015327 0.5396952
0.68970346 0.22399253 0.53795105
0.6918363 0.22397529 0.53832453
0.69465524 0.22290984 0.53882498
0.68688023 0.22743288 0.53745514
0.68847042 0.226524 0.53858352
0.69044149 0.22606194 0.5396384
0.68009073 0.22991152 0.53823268
0.68239379 0.22952408 0.53895777
0.68545842 0.22824064 0.53813064
0.67760503 0.23294608 0.53744745
0.67921066 0.23245649 0.53874815
0.68171149 0.2324619 0.53941119
0.67073107 0.23660225 0.53750265
0.67336529 0.23637466 0.53752506
0.67668194 0.23560666 0.53840798
0.67817581 0.23452991 0.53989005
0.66270477 0.2394304 0.53743511
0.66475385 0.23904902 0.5381009
0.66771042 0.23854002 0.53802478
0.67039251 0.23850696 0.5387007
0.6741277 0.23830053 0.53835857
0.67607772 0.23835227 0.53900182
0.66188431 0.24178755 0.53785634
0.66399521 0.24159668 0.53917062
0.66681945 0.24090114 0.53946412
0.67087483 0.24159107 0.5397886
0.67349243 0.24122672 0.53892946
0.67526233 0.24178061 0.53915298
0.60414803 0.24415198 0.53988975
0.65649515 0.2458315 0.53743023
0.65904945 0.24447173 0.53813326
0.66112959 0.24408877 0.53901851
0.66323882 0.24373633 0.53960556
0.67348981 0.24418437 0.5392707
0.67620552 0.24499993 0.53830123
0.59769946 0.24898247 0.53953069
0.60235691 0.24893099 0.53999877
0.6506474 0.24897031 0.5374254
0.65352058 0.24807417 0.53794628
0.65554124 0.24757686 0.5385524
0.65829086 0.24666607 0.53919822
0.68012476 0.24715646 0.53965527
0.59654492 0.25082263 0.53918886
0.59823346 0.25074217 0.53862721
0.60140395 0.25132763 0.53729719
0.6036517 0.25055152 0.5391165
0.64789271 0.25112304 0.53718495
0.64936948 0.25090396 0.53851128
0.65234035 0.24997337 0.53880918
0.65405023 0.25000635 0.53981942
0.66561967 0.25083476 0.53937292
0.67777473 0.25024477 0.53708172
0.67931771 0.25080192 0.538553
0.59736717 0.25321364 0.53783274
0.60236329 0.25354555 0.5374977
0.60420454 0.25347391 0.53891087
0.6430006 0.25488865 0.53769588
0.64713651 0.25394827 0.53803706
0.6489476 0.25307375 0.53897226
0.65201187 0.25232065 0.53951585
0.68201369 0.25321954 0.5385586
0.59817064 0.25551742 0.53732347
0.60168451 0.25666061 0.53799844
0.6036855 0.25580475 0.53909522
0.63775837 0.25679168 0.53795403
0.64069474 0.25688082 0.53859884
0.64382005 0.25609574 0.53821087
0.64576316 0.25575539 0.53864914
0.59985429 0.25903004 0.53715438
0.60190213 0.25947243 0.53829509
0.60316765 0.25850651 0.53943604
0.62624073 0.26008612 0.53950298
0.62744236 0.26034552 0.53962314
0.63136148 0.25931793 0.53853416
0.63452762 0.25869614 0.53898638
0.63783801 0.25850803 0.5385921
0.64092118 0.25870261 0.53812784
0.64378256 0.2593604 0.5378949
0.64601129 0.2597973 0.53845239
0.65059078 0.2596111 0.53957331
0.65146577 0.26037794 0.53927773
0.60193294 0.26240116 0.53834748
0.62618268 0.26275378 0.53927082
0.6277582 0.2625252 0.53979957
0.65039277 0.26173997 0.53957331
0.65209043 0.26213157 0.5394392
0.60265332 0.26556009 0.5380407
0.60358226 0.26590288 0.5392397
0.62552494 0.26573879 0.5397352
0.62812233 0.26418582 0.53997594
0.65035886 0.26502568 0.53925604
0.65140176 0.26467103 0.53969616
0.60465664 0.26856515 0.53795826
0.60686219 0.26983625 0.53904951
0.62628669 0.26769564 0.53966051
0.65247667 0.26992631 0.53868508
0.60781205 0.27127248 0.53767681
0.60979038 0.27166855 0.53836852
0.6135115 0.27265468 0.53762573
0.61689091 0.27214289 0.53994095
0.61825222 0.27248317 0.53983009
0.65208685 0.27175355 0.53910255
0.61654574 0.27336645 0.53780276
0.61823064 0.27373886 0.5380947
0.65179598 0.27363318 0.53826606
0.63413197 0.28198889 0.53717792
0.63822645 0.28148779 0.5377326
0.63924104 0.28102463 0.53765482
0.63227665 0.28362843 0.53760827
0.63494277 0.28320205 0.53768939
0.63739341 0.28383172 0.53846699
0.63932037 0.28304774 0.5389564
0.63190728 0.28620249 0.53776497
0.6351037 0.28644159 0.53794575
0.63755584 0.28653675 0.53884983
0.6308471 0.29008177 0.53752911
0.63504457 0.28991684 0.53803432
0.6366927 0.28995547 0.53889287
0.6294021 0.29295823 0.53733218
0.63047755 0.2927976 0.53794008
0.63483214 0.29275647 0.53857988
0.62887883 0.29560405 0.537938
0.63286042 0.29435527 0.53894383
0.63407785 0.29541829 0.53938806
0.95372307 0.037180409 0.54294747
0.95523655 0.036988087 0.54009169
0.95337248 0.040468153 0.54184437
0.95426291 0.039047599 0.54069281
0.95343232 0.043780282 0.5409928
0.95279014 0.046488449 0.54129279
0.95253968 0.049181052 0.54129279
0.95182133 0.05253315 0.54117829
0.94375604 0.055880666 0.54111427
0.94596511 0.055868853 0.54246962
0.94948268 0.056595966 0.54226071
0.94199437 0.059009913 0.54021156
0.94314617 0.058158036 0.54051417
0.94626445 0.058486313 0.54119855
0.9496845 0.058601476 0.54196185
0.93221766 0.062822282 0.54077959
0.93383729 0.062931061 0.54204774
0.94048846 0.061233029 0.54065609
0.94392586 0.061322056 0.54081666
0.94620752 0.061164197 0.54104924
0.94901562 0.060995072 0.5408833
0.95183283 0.061336763 0.54182017
0.92649692 0.065291986 0.54002213
0.92911172 0.065100163 0.54136258
0.93059188 0.064174756 0.54196048
0.93697327 0.063012868 0.54213512
0.94370794 0.06321647 0.54283631
0.94640815 0.063930646 0.54240024
0.9239412 0.067878582 0.5401637
0.92557544 0.06753432 0.54115361
0.9274596 0.067186415 0.5419485
0.94445592 0.067170724 0.54112011
0.91981328 0.071318105 0.54093832
0.92223138 0.070545331 0.54160905
0.92505372 0.06931375 0.5417183
0.91920769 0.073718876 0.54096156
0.92176867 0.073867388 0.54229587
0.91781962 0.076313019 0.54103124
0.91978347 0.076426044 0.54199415
0.92211866 0.076539055 0.54266632
0.91130292 0.08066994 0.54086381
0.9136399 0.080338702 0.54126161
0.91654664 0.078793325 0.54152662
0.90203166 0.082908481 0.54061574
0.90533876 0.082624577 0.54103839
0.90789461 0.082299769 0.54124165
0.9112283 0.082014121 0.54166842
0.91281325 0.082129978 0.54291767
0.89647341 0.086581349 0.54067147
0.89849913 0.085905351 0.54108351
0.90141624 0.085536465 0.5417611
0.90453893 0.085018054 0.5417884
0.90647 0.08513841 0.54274249
0.8922317 0.089015618 0.54145169
0.89492351 0.088179559 0.54182273
0.9012965 0.088166863 0.54250157
0.90434611 0.087653428 0.542588
0.887788 0.092656158 0.54064524
0.88955969 0.091741376 0.54160029
0.89141744 0.090293601 0.54202509
0.90398324 0.091554947 0.542588
0.88428736 0.095069081 0.54084986
0.88644475 0.09432523 0.54107153
0.88887155 0.094053999 0.54215944
0.90192556 0.093409032 0.54243428
0.90409702 0.094163768 0.54229909
0.88148546 0.097486846 0.54048318
0.88336581 0.097615764 0.54142046
0.88536805 0.096463181 0.54235995
0.90391546 0.096115418 0.54229909
0.87897319 0.10121097 0.54061943
0.88040811 0.10054519 0.54148167
0.88444513 0.099008985 0.54292947
0.87539935 0.10486057 0.54082274
0.87783408 0.1035141 0.54111606
0.87965143 0.10256302 0.54162252
0.8748858 0.10675965 0.54110646
0.87734663 0.10662102 0.54239893
0.86336958 0.10964254 0.54033613
0.86559087 0.10936449 0.54057872
0.8687526 0.11019212 0.5401634
0.87464893 0.10930694 0.54110646
0.87707978 0.10949034 0.54239887
0.85959709 0.11341335 0.54020822
0.86259192 0.11236095 0.54106396
0.86574352 0.11256339 0.54086322
0.87510461 0.11211275 0.54106164
0.8772887 0.11270255 0.54197335
0.85772967 0.11520111 0.54083645
0.85998976 0.115366 0.54138374
0.8617115 0.11550262 0.54240072
0.86523032 0.11571521 0.54105067
0.87546122 0.11576471 0.54075515
0.87690496 0.11550691 0.54224384
0.85272706 0.11990115 0.54061049
0.85737866 0.1189743 0.54083645
0.85877943 0.11832861 0.54168504
0.86312664 0.11941292 0.54255015
0.87491786 0.11797954 0.54103875
0.87703228 0.11910173 0.54168963
0.83973902 0.12271521 0.54091555
0.84148675 0.1221033 0.54142123
0.84451413 0.12141621 0.54181319
0.84705162 0.12075892 0.54131305
0.84903032 0.12092874 0.54290158
0.85389972 0.12001023 0.54208624
0.85532486 0.12012013 0.54251313
0.83671975 0.12496996 0.54007483
0.8388741 0.124731 0.54095936
0.84088272 0.12469371 0.54223812
0.8432548 0.12363091 0.5427345
0.83311623 0.12780592 0.54054862
0.83603305 0.12767045 0.54112512
0.83827168 0.12743321 0.54229629
0.84195304 0.12665859 0.54279864
0.82644689 0.13160932 0.54121435
0.8294549 0.13124506 0.54186743
0.83272707 0.13005808 0.54098463
0.83535147 0.1304861 0.54166263
0.83718383 0.13002108 0.54256886
0.82688183 0.13349885 0.54066718
0.82963187 0.13373764 0.54150242
0.83285201 0.1340138 0.54192913
0.83562994 0.13446066 0.54247117
0.82425016 0.13667434 0.54069364
0.82620043 0.13654056 0.541852
0.82963443 0.13622186 0.54212219
0.83246821 0.1364677 0.54206622
0.83514249 0.13607377 0.54138768
0.83722788 0.13625725 0.54201871
0.81849605 0.14078483 0.54016304
0.81985456 0.14090963 0.54057741
0.82337964 0.13906965 0.54086292
0.8260594 0.13993138 0.54169607
0.82979476 0.13892499 0.54230756
0.81172216 0.14343138 0.54059631
0.81432885 0.14316475 0.54168195
0.81715602 0.14230268 0.54125011
0.82082176 0.14173882 0.54162008
0.82362956 0.14249194 0.54200625
0.82588267 0.1427009 0.54245079
0.82860518 0.14233264 0.54253244
0.81159556 0.14578579 0.5413928
0.81446129 0.14470959 0.54266798
0.82377732 0.14559567 0.54244184
0.82633942 0.14521952 0.54265976
0.82831913 0.14540686 0.54253244
0.80657709 0.1494568 0.54040045
0.80848259 0.14841774 0.54156673
0.81023252 0.14736523 0.54217392
0.82300103 0.14861049 0.54247344
0.82572818 0.14763907 0.54217792
0.8025052 0.15221167 0.54095459
0.80509436 0.15173739 0.54198277
0.80730641 0.15074122 0.54209387
0.82361293 0.15197249 0.5417819
0.82548505 0.15108339 0.5422743
0.79698145 0.15577185 0.54050571
0.79926109 0.15479358 0.54093879
0.80148464 0.15440744 0.54220331
0.80583555 0.15302959 0.54242575
0.82197553 0.15592408 0.54236937
0.82373214 0.15425396 0.54176044
0.82548302 0.15442634 0.54265976
0.78721291 0.15834871 0.54040742
0.79027927 0.15866753 0.54159677
0.79369879 0.15759414 0.54111093
0.79662198 0.1575411 0.54151142
0.79899782 0.15717912 0.54234934
0.82186162 0.15714851 0.54236937
0.82421231 0.1577132 0.54145515
0.82508337 0.15872286 0.54265976
0.78573346 0.16118836 0.54073602
0.78720921 0.16074266 0.54129583
0.79001206 0.16031988 0.54203153
0.79390109 0.16026355 0.54216993
0.79616392 0.15970641 0.54202414
0.82346237 0.16042197 0.54148757
0.78129315 0.16489059 0.54052246
0.78506231 0.16371953 0.54060155
0.78772479 0.16392609 0.54157013
0.79015476 0.1632257 0.54230022
0.82189214 0.16334389 0.5418247
0.82307321 0.16347536 0.54174739
0.77639544 0.16790293 0.54083705
0.77826381 0.16644935 0.54081672
0.78122455 0.16666691 0.54125202
0.78428423 0.1664208 0.54137498
0.78663123 0.16628757 0.54162836
0.79051608 0.16622061 0.54235661
0.77190483 0.17092471 0.54161072
0.77534866 0.16935164 0.541713
0.77786887 0.16803999 0.54269129
0.78189445 0.16851094 0.54291105
0.78520364 0.16891587 0.54219908
0.78811848 0.16926639 0.54188025
0.79075843 0.16939706 0.54232126
0.76478589 0.17305416 0.54014182
0.76667392 0.17327322 0.54073775
0.77024025 0.17310441 0.54138511
0.77215254 0.17215264 0.54126143
0.77433741 0.17239293 0.54241174
0.79105085 0.17264675 0.54129362
0.76043153 0.17660442 0.54162836
0.76353449 0.17564021 0.54085767
0.76642507 0.1755911 0.54158884
0.76958126 0.17499749 0.54157984
0.78829789 0.17591843 0.54195005
0.7906819 0.17543863 0.54186559
0.75554836 0.17895159 0.54050446
0.75747806 0.17857882 0.54169708
0.7599054 0.1776814 0.54286188
0.76408225 0.1770563 0.5421015
0.76649255 0.17774931 0.54241824
0.76891595 0.17766748 0.542256
0.75228888 0.18261759 0.54094779
0.75479865 0.18176749 0.54125965
0.75719517 0.18134837 0.54225218
0.7492491 0.18573934 0.54042041
0.75150943 0.18542552 0.54146284
0.75428987 0.18450867 0.54156566
0.75625306 0.18426944 0.54258603
0.74349284 0.18842492 0.54104459
0.74578285 0.18775396 0.54152483
0.74871463 0.18708491 0.54164505
0.75161356 0.18656197 0.54288554
0.75423074 0.18692748 0.54270619
0.75716972 0.18790907 0.5429818
0.74246424 0.19059561 0.54138798
0.7378608 0.19462104 0.54044861
0.73991358 0.19450533 0.54109663
0.74237245 0.19313613 0.54156846
0.73680753 0.19718516 0.54018986
0.73988795 0.1966524 0.5406487
0.74202311 0.19661064 0.54216504
0.72718531 0.2005524 0.54022318
0.7301051 0.2004087 0.54048729
0.73310107 0.20009482 0.54043365
0.73623073 0.19979088 0.54052991
0.73956436 0.19966003 0.54104209
0.74147892 0.19915313 0.54206723
0.72480905 0.20299393 0.54163015
0.72723311 0.20203897 0.54138684
0.73044908 0.20246391 0.54205346
0.73316973 0.20197421 0.54167694
0.73655313 0.20194085 0.54108578
0.73932219 0.20253812 0.54148185
0.71622425 0.20628105 0.54050344
0.7184763 0.2063067 0.54139227
0.72197104 0.2060219 0.54102921
0.72463089 0.20526396 0.54159576
0.7279281 0.2050492 0.5409255
0.73063368 0.20507702 0.54112732
0.73908752 0.20535263 0.5416581
0.71527225 0.20849876 0.54148942
0.7181083 0.20761976 0.54246056
0.73789746 0.20738854 0.54083729
0.73886317 0.20863441 0.54218686
0.71272951 0.21137276 0.54124457
0.73779815 0.21078695 0.54224658
0.70762283 0.21510518 0.54060066
0.70959169 0.21438602 0.5412882
0.7116524 0.21341594 0.54217923
0.70730662 0.2175004 0.54134887
0.7092483 0.21736525 0.54216897
0.69820809 0.22141309 0.54032046
0.70059305 0.22184406 0.54014242
0.70434356 0.22022572 0.5403412
0.70636386 0.22060166 0.54172003
0.70808995 0.22014877 0.54284972
0.69193363 0.22479185 0.54029989
0.69395006 0.2244055 0.54030651
0.6973449 0.22361882 0.54082894
0.70043278 0.22362457 0.54121804
0.70376933 0.22330497 0.54146004
0.70595491 0.22299761 0.54267335
0.68933219 0.22761142 0.5412333
0.69135416 0.22627687 0.54159057
0.69479102 0.22647297 0.54168355
0.69714653 0.22635829 0.54204983
0.70045698 0.22590432 0.54231423
0.70281279 0.22548369 0.54226422
0.68336797 0.23048712 0.54021108
0.68551284 0.22959661 0.54152167
0.68786597 0.22899869 0.54148328
0.69488847 0.22967719 0.54226619
0.6967361 0.22998846 0.54266703
0.7010473 0.23077136 0.54281533
0.60489416 0.23385371 0.54096764
0.68014944 0.23377268 0.54020107
0.68319356 0.23245522 0.54074109
0.68512756 0.23218784 0.54234403
0.69433653 0.23235768 0.54259336
0.59600937 0.23562677 0.54204148
0.60478097 0.23572768 0.54123521
0.60694331 0.2356454 0.54185218
0.67759955 0.2360438 0.54037583
0.67972827 0.23568216 0.54030997
0.68246335 0.23522168 0.54153299
0.69452298 0.2352373 0.54210269
0.69782495 0.23553485 0.54147959
0.69938999 0.23613308 0.54243737
0.59605449 0.23786187 0.54235727
0.60464936 0.23870425 0.54167163
0.60688531 0.23802087 0.54236931
0.67684698 0.23901564 0.54063767
0.67962122 0.23831256 0.54048097
0.68211097 0.23848571 0.54158694
0.69399357 0.23848811 0.54234809
0.69797325 0.23823828 0.54091406
0.69932097 0.23767254 0.54181826
0.59886336 0.24191599 0.54237187
0.60121804 0.24225996 0.54225427
0.60493374 0.24156468 0.54161376
0.60685873 0.24175563 0.54209679
0.66576159 0.24297199 0.54166001
0.66742194 0.24176885 0.54128796
0.67077404 0.2429519 0.54083782
0.67603695 0.24117665 0.54158694
0.67974758 0.24117444 0.54210675
0.69664979 0.24074177 0.5416829
0.59644747 0.24533038 0.54239738
0.59862405 0.24428865 0.54212737
0.60113108 0.24544184 0.54118168
0.60467708 0.24423845 0.54135543
0.60700959 0.24411145 0.54237902
0.66204613 0.24530391 0.54080343
0.66447985 0.24438287 0.54135364
0.66841429 0.24450801 0.54279763
0.67012918 0.24435477 0.54222471
0.67659605 0.24350713 0.54153031
0.67963898 0.24494617 0.54204035
0.69453943 0.24367905 0.54204494
0.59630179 0.24752396 0.54070985
0.59779567 0.24751489 0.54065979
0.60461491 0.24721891 0.54135031
0.65672952 0.2489123 0.54006666
0.65881073 0.24814688 0.54125041
0.66111124 0.24712907 0.5416795
0.66361809 0.24743456 0.54201174
0.67073089 0.24613386 0.54216838
0.68030292 0.24790955 0.54099989
0.68176591 0.24764645 0.54210472
0.60502547 0.25032768 0.54080439
0.60673088 0.25100353 0.54224145
0.65098816 0.25096682 0.54004812
0.6527108 0.25121903 0.54124445
0.65591025 0.25073165 0.54061687
0.65815556 0.24985379 0.54195511
0.6646204 0.2493349 0.54147685
0.66629261 0.25089735 0.54021984
0.68009961 0.25053725 0.54122353
0.68197221 0.25065842 0.54210746
0.60557669 0.25371358 0.54080802
0.60695195 0.25388908 0.54208177
0.64769763 0.25457284 0.54027551
0.64962029 0.25408357 0.54066193
0.65259832 0.25368905 0.54110879
0.65567052 0.25360101 0.54139233
0.657933 0.25336117 0.5418359
0.68368423 0.25272882 0.54162681
0.60493076 0.25687858 0.54114759
0.6066041 0.25635657 0.54257625
0.64135289 0.25661525 0.54107809
0.64279497 0.25713563 0.54173183
0.64664733 0.25578186 0.54105347
0.64946157 0.2564851 0.54123223
0.65221816 0.25648853 0.54178602
0.6548475 0.25626165 0.54252666
0.60474503 0.25970334 0.54131842
0.6064955 0.26096535 0.54297566
0.62878978 0.25994575 0.54125786
0.63161176 0.2598334 0.54161906
0.63475889 0.25936729 0.54178166
0.63744092 0.25866103 0.54147279
0.64403957 0.25802457 0.54097253
0.64758444 0.25937593 0.54069173
0.64970565 0.25894189 0.54068029
0.65309334 0.25950372 0.54071331
0.6556021 0.2593953 0.54185718
0.6044898 0.26276544 0.54128063
0.6063062 0.26300058 0.54297566
0.62929118 0.26219249 0.5412029
0.63026613 0.26228318 0.5424298
0.65329653 0.26268056 0.54094189
0.65457946 0.26219472 0.54209155
0.60480005 0.26542652 0.54137802
0.60611683 0.26503578 0.54297566
0.62658966 0.2654154 0.54008758
0.62868494 0.26541755 0.54157388
0.63007224 0.26436719 0.5424298
0.65008235 0.26649061 0.54022849
0.65279186 0.26536638 0.54123753
0.65420973 0.26552117 0.54280561
0.60530686 0.267342 0.54115319
0.60756302 0.26902404 0.54148746
0.62549591 0.2692388 0.54066586
0.62828523 0.26806986 0.54175913
0.6505121 0.26765621 0.54040891
0.65285927 0.26851371 0.54135817
0.65411109 0.26879075 0.54256868
0.61019748 0.27028626 0.54205376
0.61347109 0.27118757 0.54107791
0.61553353 0.27180362 0.54005152
0.62599057 0.2712875 0.54095912
0.62786454 0.27135941 0.54189807
0.65306377 0.27143565 0.54107559
0.65406191 0.27152848 0.54233176
0.62549645 0.27307731 0.54055136
0.65228736 0.27427477 0.54166871
0.63700986 0.29086614 0.54083806
0.63615733 0.29291052 0.54001164
0.6290682 0.29524863 0.54098159
0.63153929 0.29597616 0.54034889
0.63483852 0.29603484 0.54096794
0.63661814 0.29507706 0.54083806
0.9547497 0.035240892 0.54400331
0.95256615 0.041249625 0.54354411
0.95231616 0.04393718 0.54354411
0.95206618 0.046624735 0.54354411
0.9518162 0.049312294 0.54354411
0.94994664 0.05271836 0.5447343
0.95162863 0.051327955 0.54354411
0.94689393 0.055325821 0.54434359
0.95008594 0.055389866 0.54443705
0.94968545 0.05855602 0.54508489
0.95268011 0.058202777 0.54565382
0.95587033 0.05822628 0.54492408
0.95204818 0.061728954 0.54475206
0.92979717 0.065598972 0.54417533
0.9321838 0.064990789 0.54404068
0.93537039 0.064413369 0.54413247
0.93747419 0.064484231 0.54446596
0.94084454 0.064522669 0.54354376
0.94637692 0.064646214 0.54322386
0.94930667 0.063396275 0.54361284
0.95176101 0.063538902 0.54512644
0.92841524 0.067448221 0.54478759
0.93207395 0.067065448 0.54566705
0.92386103 0.070685051 0.54340822
0.92573941 0.070340626 0.5442028
0.9271524 0.069547251 0.54511923
0.92329788 0.073013626 0.54410481
0.92467105 0.073861964 0.54478759
0.92307061 0.076860636 0.54414225
0.92497396 0.076070383 0.54466772
0.91447645 0.080900669 0.54336405
0.9160825 0.08032383 0.54381073
0.91971171 0.079285994 0.54403639
0.92206097 0.078628428 0.54509193
0.90818053 0.083265707 0.54318666
0.910119 0.083384402 0.54414374
0.91331285 0.082239598 0.54503715
0.91634244 0.081514046 0.54576242
0.90806353 0.085405938 0.54446715
0.90968543 0.084720425 0.54523307
0.89534235 0.089250535 0.54391646
0.89760852 0.088700131 0.54378486
0.90087223 0.089491263 0.54358655
0.90483516 0.088896014 0.54378194
0.90741789 0.088167511 0.54511654
0.89050162 0.092476219 0.54401004
0.89227086 0.091074541 0.54461765
0.89451844 0.091205157 0.54527938
0.89777184 0.091322824 0.54429173
0.90104491 0.091441825 0.54329872
0.90540099 0.091879085 0.54366088
0.90713155 0.091794804 0.5450753
0.88703096 0.095300257 0.54358566
0.88989806 0.094834164 0.54460502
0.89173877 0.093672179 0.54569238
0.89635956 0.095177993 0.5451504
0.89759082 0.093262732 0.54429227
0.90032959 0.095325038 0.54358655
0.90531439 0.094277009 0.54383111
0.90653175 0.094390243 0.54536313
0.88428032 0.097746819 0.54400045
0.88673699 0.097248413 0.54451489
0.88920081 0.096749306 0.54503167
0.89873922 0.097234108 0.54473472
0.90125203 0.09800142 0.54431581
0.90436065 0.096861154 0.54440707
0.9063502 0.096341893 0.54536313
0.88136452 0.1014334 0.54362881
0.8828007 0.10076775 0.54449272
0.88650107 0.099170551 0.54456294
0.90182793 0.099995479 0.54453874
0.87897557 0.10386824 0.54375917
0.88040799 0.10320508 0.54462159
0.87833327 0.10640414 0.54409832
0.88001138 0.10653793 0.54536134
0.87844163 0.10960858 0.54375917
0.87963521 0.1097196 0.5452612
0.87854218 0.11217552 0.54347605
0.87973624 0.11228659 0.54497874
0.86073357 0.11545324 0.54324013
0.87833738 0.11564016 0.54404646
0.87966812 0.11517584 0.54522908
0.85914183 0.11852846 0.54435563
0.86128461 0.11804395 0.54422826
0.87730396 0.11820149 0.54404151
0.87942147 0.11932397 0.54469633
0.84764659 0.12209916 0.54400802
0.8510074 0.12172593 0.54444551
0.85361415 0.12192129 0.54467118
0.856049 0.12082012 0.54349786
0.84245485 0.12545314 0.54328591
0.84450775 0.12422161 0.54470074
0.83952117 0.12835276 0.5439626
0.84167325 0.12790662 0.54459798
0.84421945 0.12727106 0.54435968
0.84693944 0.12707515 0.54504824
0.85066903 0.12863322 0.54584026
0.83645004 0.13121194 0.54311806
0.83825588 0.13087402 0.54453605
0.84148091 0.13014036 0.54474974
0.84480625 0.13097158 0.54451567
0.8469612 0.12999772 0.54451787
0.83302546 0.13217576 0.5435819
0.83589119 0.13304253 0.54428744
0.83720076 0.13316153 0.54560524
0.84060514 0.13344917 0.54590648
0.84395403 0.1337266 0.54544765
0.83776474 0.13548499 0.54436994
0.84037483 0.13592553 0.54590648
0.84403706 0.13623615 0.54517275
0.82630503 0.13902903 0.54320467
0.82897055 0.1392677 0.54328805
0.8445338 0.13857204 0.54427624
0.81860119 0.14325732 0.54316479
0.82055426 0.14344002 0.5430392
0.8124432 0.14635198 0.54353905
0.81501561 0.14629096 0.54450297
0.81720769 0.14476408 0.54374695
0.81978726 0.14521439 0.54358095
0.82630575 0.14645326 0.543414
0.80901408 0.1496768 0.54473543
0.81117517 0.14818302 0.54420853
0.81414223 0.14814642 0.54458874
0.8169421 0.14882958 0.54474348
0.82654607 0.14854024 0.54330218
0.82883424 0.14876071 0.54400122
0.80649924 0.15186423 0.54438317
0.80858332 0.15115662 0.54500264
0.81280559 0.15249456 0.54597956
0.81434584 0.15143123 0.54522413
0.81735563 0.15112403 0.54445308
0.82706034 0.15172818 0.54379123
0.82943004 0.15153378 0.54481667
0.83148336 0.15128902 0.54584998
0.80318522 0.15457684 0.54308641
0.80542403 0.1539488 0.54404116
0.80751622 0.15317617 0.54580432
0.81472796 0.15433067 0.54518342
0.82693481 0.15456617 0.54383314
0.82922685 0.15479118 0.54508168
0.79911691 0.15718172 0.54333365
0.80178142 0.1562501 0.54341555
0.81546444 0.15768373 0.54478431
0.81859541 0.15802717 0.54358095
0.82465076 0.15681368 0.54320467
0.82657218 0.15746713 0.54453456
0.82898223 0.15662028 0.54597175
0.7911725 0.16114663 0.54382318
0.7936914 0.16142482 0.54390562
0.79574656 0.16163358 0.5452534
0.81547701 0.16075906 0.54451489
0.81831163 0.16107783 0.54358095
0.82746857 0.16018736 0.54536957
0.82875365 0.15907754 0.54597175
0.79150981 0.16360389 0.54329383
0.79320365 0.16360269 0.54452258
0.79572594 0.16282904 0.54598719
0.81442237 0.16247624 0.54532236
0.8181414 0.16290823 0.54358095
0.82407808 0.1630528 0.54451823
0.82506382 0.16240284 0.5456726
0.78681421 0.1666785 0.5433352
0.79154897 0.16722006 0.54376245
0.79356813 0.16642615 0.54495203
0.82703269 0.16511375 0.54452503
0.82818222 0.16522068 0.54597175
0.77315879 0.17043477 0.54371798
0.77485096 0.17002524 0.54458153
0.77825207 0.16895659 0.54388034
0.78051376 0.16950235 0.54494977
0.78344107 0.16987522 0.5437808
0.79181021 0.16844854 0.544231
0.7927686 0.16996339 0.54457116
0.77245402 0.17270571 0.54459929
0.77506059 0.1720373 0.54447401
0.79365909 0.17268549 0.54469001
0.76932847 0.17608598 0.54417694
0.77167612 0.17487101 0.54441851
0.79170388 0.1756933 0.54370141
0.79287732 0.17519987 0.54510832
0.75813818 0.17860651 0.54369569
0.76028168 0.17888968 0.54347086
0.76362777 0.17873994 0.54320854
0.76654834 0.179295 0.5438568
0.76895058 0.17760593 0.54467678
0.78765261 0.17880091 0.54394418
0.78993565 0.1784776 0.54429138
0.79383314 0.17713743 0.54487222
0.75797141 0.18150172 0.54440874
0.76036757 0.18146615 0.54434681
0.76337528 0.18175334 0.54501462
0.7663697 0.18085772 0.54361725
0.78884017 0.18014696 0.54435176
0.78958362 0.18021612 0.54528737
0.75573778 0.18418315 0.54310143
0.75733161 0.1845261 0.54429519
0.75974953 0.18407601 0.54487604
0.76295054 0.18390948 0.54502904
0.76509047 0.18418413 0.54537034
0.74650604 0.18874754 0.54369366
0.74826789 0.18838301 0.54441053
0.75123972 0.18781871 0.54449505
0.75516009 0.18729551 0.54419863
0.7571733 0.18726248 0.54466569
0.7435571 0.19104815 0.54371929
0.74531806 0.19053884 0.54471284
0.74036103 0.1948536 0.54359502
0.7424264 0.19400731 0.54322326
0.74502009 0.19373941 0.54471284
0.74267912 0.19632171 0.54437816
0.74505424 0.19712269 0.54468971
0.74068189 0.20071124 0.54353642
0.7427265 0.19981822 0.54435301
0.74403858 0.19881228 0.54522121
0.72772753 0.2033564 0.54345852
0.72939909 0.2036214 0.54334223
0.74046868 0.20300351 0.54353642
0.74194402 0.2024055 0.54454738
0.71997225 0.20674463 0.54303592
0.72126245 0.20689344 0.54411221
0.72408497 0.20621851 0.54369003
0.74053168 0.20562446 0.54363412
0.74161971 0.20521383 0.5447728
0.716429 0.20901679 0.54326725
0.71812063 0.20896487 0.54474556
0.72021329 0.20781554 0.54510951
0.74029303 0.20876741 0.54398626
0.74141872 0.20829409 0.54533577
0.71353519 0.21214764 0.54329324
0.71516043 0.21144238 0.54455847
0.73958403 0.21095309 0.54449403
0.74125886 0.2100133 0.54533577
0.71235406 0.21467131 0.54428583
0.71409601 0.21364324 0.54525441
0.71029902 0.21805732 0.54428226
0.71158695 0.21732841 0.54493803
0.70962298 0.22057161 0.54419369
0.71138662 0.21996063 0.54586005
0.70395613 0.22446893 0.54357296
0.70679265 0.22404881 0.54383916
0.70922512 0.22303738 0.5450632
0.7111789 0.22219397 0.54586005
0.68968326 0.22747086 0.54409611
0.69212049 0.2279948 0.54300886
0.69761914 0.22712198 0.54308188
0.7006079 0.22724915 0.54363585
0.70339561 0.2267717 0.54421037
0.70645833 0.22638862 0.54476988
0.70809859 0.22506987 0.54558837
0.59723693 0.23034066 0.54558545
0.68819147 0.22937207 0.54483712
0.69070262 0.22874719 0.54447126
0.69594973 0.22865005 0.54364777
0.69704759 0.22999179 0.54340911
0.70043349 0.22933224 0.5436154
0.70328766 0.22956218 0.54516411
0.70618081 0.22811353 0.54569906
0.59671181 0.23289953 0.54435331
0.5982582 0.23234132 0.54499215
0.68668908 0.23247497 0.5442735
0.68835157 0.23306546 0.54551548
0.69581234 0.23257315 0.54340279
0.69756526 0.23229586 0.54396868
0.70056427 0.23248915 0.54454529
0.7036227 0.23143499 0.54539156
0.59695286 0.23401314 0.54390806
0.59822422 0.23543054 0.54390442
0.60842007 0.23643 0.54342723
0.609402 0.23660178 0.54377449
0.6837039 0.23587474 0.54332912
0.68520695 0.23539363 0.54463083
0.68873084 0.23552054 0.54592699
0.69802856 0.23468831 0.54323274
0.70132554 0.23407611 0.54461354
0.70287979 0.23565975 0.54495585
0.59633952 0.23906411 0.54329085
0.59808117 0.23836562 0.54373693
0.608105 0.23872165 0.54355621
0.68366474 0.23866735 0.54308677
0.68502808 0.23879416 0.54480249
0.5963127 0.24110353 0.54334801
0.59932745 0.24072997 0.54325569
0.6007272 0.24000859 0.54315197
0.6076684 0.24144666 0.54351985
0.68052465 0.24244103 0.54373872
0.68206376 0.24141119 0.54476655
0.69143265 0.24122101 0.5440349
0.69319695 0.24102785 0.54376036
0.59644604 0.24317212 0.54346228
0.60781264 0.24475944 0.54441988
0.60902655 0.24366622 0.54502368
0.66437262 0.24466434 0.54413176
0.66654348 0.24458618 0.5438273
0.67999721 0.24340457 0.54422158
0.68154734 0.24480449 0.54446387
0.68995774 0.24418098 0.54533309
0.69188666 0.24411103 0.54406023
0.60735071 0.24752478 0.54427695
0.658593 0.24890496 0.54437137
0.66133428 0.24727264 0.54462898
0.66331911 0.24664317 0.54404593
0.6829235 0.24717033 0.54418367
0.68507725 0.24779636 0.54383326
0.60812312 0.25066748 0.54419601
0.60923046 0.25092566 0.54552209
0.65856802 0.25093791 0.54391593
0.66114759 0.25083172 0.54406327
0.68220919 0.2501061 0.54383963
0.60834169 0.25401393 0.54387301
0.60965347 0.25382477 0.54518807
0.65586627 0.25492272 0.5436424
0.65843356 0.2533319 0.54468566
0.66097903 0.25293344 0.54550445
0.60799521 0.25676522 0.54462862
0.64171726 0.25597766 0.54554027
0.64314783 0.25692859 0.54455471
0.6565457 0.25637197 0.54367173
0.65782988 0.25627619 0.54526281
0.60740983 0.25927511 0.54451889
0.63138783 0.26018739 0.54452741
0.63452131 0.26002908 0.54464358
0.637438 0.25886506 0.54466957
0.64497036 0.25801423 0.54310042
0.65688431 0.26005301 0.54353333
0.65780443 0.25944635 0.54461086
0.60586619 0.26388595 0.54342723
0.60747427 0.26206309 0.54450381
0.63189107 0.26243433 0.54447472
0.65599102 0.26265806 0.54407918
0.65741158 0.26197624 0.54540241
0.60567701 0.26591972 0.54342723
0.60757345 0.26529413 0.54464298
0.60900337 0.26540524 0.54572099
0.63119191 0.26535591 0.54450637
0.65553969 0.26564488 0.54447925
0.60765934 0.2673687 0.5439719
0.61036348 0.26847813 0.54446626
0.61244118 0.26953262 0.54416031
0.62943554 0.26903826 0.5437454
0.63070625 0.26834616 0.54489249
0.65523243 0.26854998 0.54429215
0.62923992 0.27162683 0.54395843
0.63050872 0.27138484 0.54529411
0.65585691 0.27125525 0.54453957
0.65300512 0.27545854 0.54393291
0.65507877 0.27398887 0.54465312
0.95143974 0.037409253 0.54637951
0.95035142 0.040793668 0.54697084
0.95176899 0.039917331 0.54708046
0.95031106 0.043490607 0.54723358
0.95210391 0.043501735 0.54713571
0.94979107 0.046818085 0.54697084
0.95218134 0.046838321 0.54684007
0.94954193 0.0494956 0.54697084
0.95193183 0.049520846 0.54684007
0.94768381 0.052888639 0.54815012
0.94971049 0.052211959 0.54749632
0.95174468 0.051532745 0.54684007
0.94660169 0.055483636 0.5471012
0.94951838 0.055539452 0.54712409
0.95137042 0.055556532 0.54684007
0.94783443 0.059553143 0.54756105
0.95177484 0.059563454 0.54624754
0.95554656 0.059156079 0.54714459
0.95760411 0.058478806 0.54869056
0.93377501 0.065807447 0.54612136
0.92888242 0.0683382 0.54638207
0.93104386 0.068016559 0.54752696
0.92632711 0.07091444 0.54651165
0.92845643 0.070568241 0.54711556
0.93133754 0.070214629 0.54713839
0.92544413 0.073563248 0.5472222
0.9277873 0.073044129 0.54858065
0.93009973 0.073112346 0.54845482
0.92548352 0.076992109 0.54706758
0.92822433 0.076337576 0.54800004
0.92283177 0.079728372 0.54693115
0.92511165 0.079309799 0.54797554
0.92723566 0.078974411 0.54858065
0.91102624 0.083530411 0.54676783
0.91301346 0.083684444 0.54852748
0.91658133 0.082919881 0.5477097
0.91969854 0.081824735 0.54790127
0.91053164 0.085516214 0.54785389
0.90817273 0.089949638 0.54689515
0.91028941 0.088120781 0.54785383
0.90805173 0.091250733 0.54689515
0.90998209 0.091604039 0.54811978
0.89086741 0.095584936 0.54626054
0.89294386 0.094399415 0.54632306
0.90798056 0.094656244 0.54720157
0.90902704 0.093966171 0.54842716
0.8878175 0.098053053 0.54773772
0.89005387 0.097521722 0.54761249
0.89223653 0.097632594 0.5474897
0.89581573 0.098452881 0.54701853
0.90174663 0.098772526 0.54721129
0.90520865 0.097644351 0.54702199
0.90758598 0.096809 0.54769218
0.88428855 0.10126136 0.5467844
0.88561904 0.10094111 0.54793453
0.88912934 0.099400192 0.54739356
0.89251339 0.099625677 0.54878175
0.90385145 0.10018371 0.54708517
0.88136268 0.10409028 0.54676324
0.88279629 0.10342723 0.54762727
0.88141996 0.10692628 0.54716378
0.88253063 0.10591449 0.54843223
0.8812266 0.10986763 0.54726392
0.88247955 0.10934084 0.54876602
0.88110232 0.11220448 0.54690921
0.88235039 0.11273895 0.54805738
0.88114578 0.11580336 0.54749864
0.88268393 0.11447617 0.54820418
0.87858629 0.11801226 0.54632533
0.88039649 0.11879766 0.54726344
0.88220888 0.11958325 0.54820418
0.88733363 0.11995637 0.54896444
0.85458028 0.12076047 0.54642147
0.88141155 0.12082153 0.54876596
0.89019954 0.12014478 0.54827756
0.84453714 0.12566362 0.54724419
0.84723914 0.12386837 0.54719651
0.84454691 0.12815201 0.54620934
0.84734225 0.12774765 0.54630029
0.85092682 0.12741439 0.54737014
0.85312027 0.12760255 0.54877895
0.84985912 0.13045901 0.54639143
0.83859062 0.13328116 0.54602891
0.84746838 0.13309523 0.54741389
0.84806991 0.13596807 0.54749078
0.81110555 0.14987803 0.54609925
0.8090483 0.15210569 0.54695928
0.81099302 0.15108798 0.54609925
0.83273047 0.15120009 0.54695719
0.8067112 0.15470228 0.54750019
0.80860478 0.15418725 0.54759496
0.81199461 0.15485328 0.54651475
0.83058661 0.15430003 0.54639357
0.83135366 0.15437138 0.54735887
0.80619776 0.15666728 0.54834592
0.80752647 0.15680362 0.54876125
0.81153345 0.15663615 0.5467819
0.82934666 0.1573882 0.5475623
0.79752171 0.16180751 0.54686749
0.7986415 0.16191168 0.54827672
0.82791787 0.16146293 0.54651427
0.82914734 0.16013715 0.54745811
0.79411614 0.16384631 0.54657388
0.79657286 0.16337463 0.54809809
0.82653564 0.16315779 0.54759663
0.79482889 0.16634256 0.54651523
0.79594684 0.16644654 0.54792213
0.77568263 0.17008971 0.54622722
0.77813452 0.1703824 0.54631341
0.78059596 0.17067622 0.54639977
0.79415709 0.16897403 0.54691064
0.79558682 0.16961901 0.54825372
0.77194393 0.17315815 0.54789519
0.77507859 0.17177254 0.54746628
0.7943843 0.17112191 0.54651523
0.79607975 0.17265581 0.54787898
0.76977861 0.1758641 0.54729092
0.77130228 0.1742506 0.54841095
0.79436797 0.17533852 0.5469842
0.79548585 0.17544252 0.5483911
0.76677221 0.17902407 0.5474605
0.76845562 0.1774631 0.54760528
0.79644775 0.17740111 0.54733723
0.76623982 0.18156847 0.5475136
0.76652539 0.18383177 0.54759246
0.74865943 0.18894784 0.54640359
0.75172466 0.18819694 0.54668623
0.74613833 0.19120234 0.54667127
0.74815458 0.19022377 0.54775685
0.75009501 0.18908137 0.5482102
0.7465781 0.19328992 0.54698592
0.74763203 0.19363473 0.54795951
0.74615622 0.19653326 0.54683572
0.74802452 0.19666311 0.54794037
0.75260472 0.19768515 0.54657304
0.74318409 0.20094399 0.54668534
0.74561435 0.1996205 0.54728097
0.74788398 0.19846454 0.54845238
0.75097036 0.19854814 0.54809976
0.74329203 0.2028985 0.54666662
0.74459064 0.20223974 0.54840052
0.74311513 0.20556176 0.54713523
0.74449116 0.20570375 0.54858333
0.71899581 0.20922564 0.54704034
0.74284863 0.2084271 0.54713523
0.74427843 0.20856011 0.54893458
0.71647775 0.21170875 0.5461874
0.71753943 0.21159004 0.54735315
0.74261451 0.21112059 0.54772508
0.74411851 0.2102793 0.54893458
0.71330953 0.21569866 0.54668194
0.71528554 0.21454182 0.54715276
0.71766758 0.21408008 0.54794663
0.71279335 0.21786061 0.5470106
0.71561271 0.21713337 0.54817212
0.71082211 0.22096564 0.54635328
0.71280527 0.22066712 0.54753131
0.71472031 0.22009103 0.5484097
0.59437162 0.22494242 0.54833221
0.71045065 0.22367385 0.54728335
0.71268237 0.22329919 0.54786366
0.71522176 0.22359081 0.54835629
0.59569561 0.22650664 0.54739344
0.70743436 0.22718178 0.54608071
0.70923215 0.22627445 0.54750115
0.71233296 0.22675203 0.54863918
0.71429664 0.22653574 0.54862905
0.59475487 0.22814529 0.54745233
0.59704262 0.22872984 0.54602891
0.68747205 0.22969 0.54627669
0.70673299 0.2294507 0.54740107
0.70826232 0.22830716 0.54831856
0.71294224 0.22967926 0.54892802
0.71437258 0.2282712 0.54838306
0.6867851 0.23230541 0.54675931
0.68782699 0.23196656 0.54646444
0.7033298 0.2325457 0.54746956
0.70645571 0.23142803 0.54749918
0.71071601 0.23213293 0.54859614
0.71294391 0.23179618 0.54845375
0.71570146 0.23314142 0.5473423
0.71721721 0.23336066 0.54816866
0.68669641 0.23564246 0.54651821
0.70394695 0.23463966 0.54741544
0.68610352 0.23883879 0.54683971
0.68789715 0.23809516 0.54657173
0.68343323 0.24169748 0.54625082
0.68516755 0.24137202 0.54760212
0.60877746 0.24552082 0.54671973
0.68254203 0.24409428 0.54644698
0.68589443 0.24319795 0.54742897
0.60870409 0.24759209 0.54657024
0.6093483 0.24817894 0.54729283
0.61079687 0.2502473 0.5468415
0.61341411 0.25064057 0.54719251
0.61074394 0.25314921 0.54736906
0.61299986 0.25311381 0.54855984
0.65935922 0.25426638 0.54693764
0.61045992 0.25620204 0.54736918
0.61249143 0.25545827 0.54891849
0.65916085 0.25640002 0.54693764
0.60887635 0.25903752 0.54662019
0.60964227 0.25909483 0.54771024
0.63484448 0.26041618 0.54773635
0.63759184 0.25912321 0.54765964
0.63951868 0.25846636 0.54785454
0.65917838 0.25994334 0.54638278
0.66058511 0.25946748 0.5465976
0.6088925 0.26272792 0.54617089
0.60967004 0.26211226 0.54732609
0.63449097 0.26267618 0.54774666
0.65856534 0.26301742 0.5471819
0.6609205 0.26212347 0.5480178
0.60875052 0.26425433 0.54617089
0.60987979 0.26557603 0.54734778
0.63247883 0.26606533 0.54657078
0.63403749 0.26547319 0.54797608
0.65686959 0.26576859 0.54615283
0.65812874 0.2657513 0.54772192
0.61176878 0.26802489 0.54677063
0.61205465 0.26794863 0.54802126
0.61537415 0.26866972 0.54862756
0.63217473 0.26864523 0.54664743
0.63388491 0.26871645 0.54839754
0.65662163 0.26843363 0.54615283
0.65806788 0.26833776 0.5479461
0.63195705 0.27172685 0.54716414
0.63394356 0.27208453 0.54815555
0.6585483 0.27160117 0.54714721
0.65625948 0.27482399 0.54668891
0.65816444 0.27433071 0.54777473
0.65647602 0.27637386 0.54787779
0.94589454 0.055602163 0.54932505
0.95694286 0.057151705 0.54928243
0.95778185 0.057229746 0.55033827
0.9175877 0.083893627 0.5490793
0.92080396 0.08274661 0.5499841
0.92290008 0.081931509 0.54951799
0.91292322 0.085708819 0.55012369
0.91563356 0.085871257 0.55131269
0.91995025 0.084051318 0.55055916
0.92149961 0.08413326 0.55101293
0.91191399 0.088271894 0.54989839
0.91393948 0.088603169 0.55049962
0.91554677 0.088275731 0.55148339
0.91122848 0.091505565 0.54978591
0.91379207 0.09165778 0.55067009
0.91561568 0.090475388 0.55182475
0.91036355 0.094733708 0.54981631
0.91270715 0.094900429 0.55128914
0.90376639 0.0989604 0.54975313
0.90804404 0.097908095 0.55059022
0.91064787 0.096725166 0.55027974
0.91347259 0.09690538 0.55137223
0.88699335 0.10117473 0.55033749
0.9052242 0.099703699 0.55020028
0.90732706 0.10049178 0.55097002
0.91085666 0.10069814 0.55149114
0.91238785 0.10079468 0.55194294
0.88414949 0.10368583 0.54948682
0.88568443 0.10380885 0.55070972
0.88413996 0.10626931 0.55012792
0.88550413 0.1063869 0.55149043
0.88401353 0.10946606 0.54998791
0.88554823 0.10959135 0.55121088
0.88388669 0.11266449 0.54984772
0.88525128 0.11278327 0.55121088
0.88363791 0.11535513 0.55034417
0.88507313 0.11469842 0.55121088
0.88136876 0.11827108 0.54982698
0.88335437 0.11820605 0.55041456
0.85081744 0.12201631 0.5506416
0.85254049 0.12004141 0.54987514
0.88260508 0.12093255 0.55026793
0.84506983 0.12572993 0.54924995
0.84763259 0.12489691 0.55012619
0.84990019 0.12362244 0.55102468
0.84864956 0.12602937 0.55108172
0.84844488 0.13350251 0.54901522
0.79938805 0.16198112 0.54921621
0.80402511 0.16127199 0.54993212
0.79709488 0.16412339 0.55032241
0.79969382 0.16299956 0.55074954
0.80219769 0.16226012 0.55151039
0.82812148 0.16268726 0.54952055
0.79743743 0.16658519 0.54979801
0.79855537 0.16668919 0.55120486
0.79705542 0.16942792 0.55039382
0.79822195 0.17027371 0.55120486
0.77184284 0.17267033 0.55127448
0.79737848 0.17231789 0.54977
0.79861063 0.17274044 0.55104649
0.76936692 0.17552696 0.55068493
0.77116615 0.17414998 0.55178618
0.79697657 0.17558119 0.55026698
0.79920036 0.17400789 0.55161947
0.76791 0.17970158 0.54954964
0.7688508 0.17846525 0.55057997
0.79794079 0.17754 0.54921621
0.79906064 0.17764416 0.55062544
0.76774716 0.18145154 0.54954964
0.76883876 0.1815531 0.55092335
0.76758444 0.18320152 0.54954964
0.76895612 0.18413886 0.55058199
0.7489239 0.19062606 0.54922211
0.74865669 0.19349825 0.54922211
0.74793923 0.19570141 0.5497269
0.74903566 0.20006385 0.54953969
0.75087517 0.19904435 0.54976314
0.74627149 0.20242253 0.54994863
0.74854064 0.20272237 0.55091059
0.74576777 0.2055995 0.54999298
0.7481057 0.20555903 0.55107856
0.7457549 0.20838533 0.55007219
0.74783885 0.20842895 0.55107856
0.74351293 0.21131854 0.54943836
0.74533474 0.21157877 0.55003256
0.74746817 0.21163659 0.55098844
0.74289751 0.21467404 0.55000734
0.7452293 0.21430054 0.55101454
0.74776965 0.21305412 0.55152917
0.71589005 0.21819313 0.55019099
0.74286622 0.217673 0.55164021
0.74451554 0.2160323 0.55123633
0.71568376 0.22056986 0.55051887
0.59463716 0.22335169 0.54977286
0.71595162 0.22392322 0.54957712
0.71872234 0.22376382 0.55075026
0.71077466 0.22644249 0.54908651
0.71567601 0.2263619 0.54978782
0.71830559 0.22652629 0.55091387
0.70783615 0.23035936 0.5501684
0.70956546 0.22937123 0.54942203
0.71518457 0.22959295 0.55016869
0.71835732 0.22965133 0.55056274
0.72108805 0.2298733 0.55095339
0.70443463 0.2331686 0.54945338
0.70603436 0.23270889 0.55054301
0.70818895 0.23158926 0.54968047
0.71583313 0.23224261 0.5506658
