# .PCD v0.7 - Point Cloud Data file format
VERSION 0.7
FIELDS x y z
SIZE 4 4 4
TYPE F F F
COUNT 1 1 1
WIDTH 614
HEIGHT 1
VIEWPOINT 0 0 0 1 0 0 0
POINTS 614
DATA ascii
0.69033623 -0.10281479 0.51597458
0.68667018 -0.091660172 0.51577765
0.68646795 -0.089486077 0.51577765
0.68820798 -0.079934843 0.51597458
0.68893456 -0.076780051 0.51587212
0.68914551 -0.073564224 0.51582086
0.68863803 -0.06810832 0.51582086
0.68807977 -0.062106825 0.51582086
0.69051898 -0.043281201 0.51586443
0.68990767 -0.036709119 0.51586443
0.68975484 -0.035066098 0.51586443
0.68929636 -0.030137036 0.51586443
0.68914354 -0.028494012 0.51586443
0.68888879 -0.025755636 0.51586449
0.68858314 -0.022469593 0.51586449
0.68837935 -0.020278905 0.51586443
0.68797183 -0.015897505 0.51586443
0.68766612 -0.01261147 0.51586443
0.68965292 0.011424095 0.5159083
0.68955064 0.012523644 0.5159083
0.69037151 0.049441934 0.51595253
0.69011486 0.05220139 0.51595253
0.68980682 0.055512726 0.51595253
0.68949884 0.05882407 0.51595253
0.6892935 0.061031628 0.51595253
0.69442421 -0.10842996 0.5175842
0.69209492 -0.10612813 0.51675367
0.69367385 -0.10607145 0.51821399
0.6977762 -0.10788228 0.51690066
0.69088912 -0.10386574 0.51731426
0.68970013 -0.10050042 0.51647866
0.69071889 -0.10040566 0.51776046
0.68893975 -0.097315624 0.51675558
0.69041747 -0.097447485 0.51807022
0.68882954 -0.094606116 0.51710379
0.69011867 -0.094799697 0.51868963
0.68833464 -0.091572724 0.51745409
0.6882742 -0.088242345 0.51742935
0.68866301 -0.085267283 0.51736337
0.68870831 -0.082473785 0.51733321
0.6890347 -0.079991579 0.51714605
0.69019622 -0.079200432 0.51854026
0.68902475 -0.077660963 0.51725745
0.690534 -0.076332234 0.51782143
0.68982619 -0.073500909 0.51667738
0.69063926 -0.073403172 0.51785004
0.68913627 -0.070344716 0.5168708
0.69076014 -0.070188664 0.51771003
0.68922275 -0.067586623 0.517299
0.69029629 -0.068352893 0.51889336
0.68944806 -0.064879894 0.51617241
0.69025248 -0.064730689 0.51771003
0.68890017 -0.061154857 0.51752824
0.69017255 -0.062462471 0.51839048
0.68850607 -0.058348544 0.51740783
0.69009942 -0.057109088 0.51788676
0.6881097 -0.055908773 0.51760954
0.69062138 -0.055093542 0.51704538
0.68944615 -0.052903812 0.51652455
0.69025111 -0.052759036 0.51806319
0.68962663 -0.050269157 0.51601869
0.69079322 -0.04947095 0.51741803
0.69058442 -0.046409048 0.5169692
0.68998116 -0.042094421 0.51637119
0.69059855 -0.043626439 0.51748282
0.68982846 -0.040452652 0.51637119
0.69012642 -0.040845983 0.51773566
0.68972421 -0.038395297 0.51682603
0.69056177 -0.03693109 0.51734805
0.69036531 -0.034351751 0.51757514
0.68952954 -0.030769531 0.51677531
0.69063097 -0.031510055 0.51778609
0.68982679 -0.028430454 0.51672423
0.69060147 -0.028592516 0.51850384
0.68949693 -0.025603596 0.5174728
0.69037879 -0.025557371 0.51826632
0.68943226 -0.022146288 0.51716918
0.69014847 -0.022614395 0.51849377
0.68957841 -0.019284438 0.51712829
0.69020367 -0.01906161 0.51776081
0.68924254 -0.016221641 0.51741153
0.69017446 -0.017349858 0.51844382
0.6891346 -0.013579904 0.51758373
0.68932664 -0.010370341 0.51700538
0.69005007 -0.011393423 0.51793832
0.68888992 -0.0073945727 0.51695496
0.68882722 -0.0047349464 0.51718539
0.69002014 -0.0036565235 0.51879877
0.68879044 -0.0015595661 0.51750815
0.68896133 0.0016038938 0.51746243
0.68901199 0.0046554226 0.51716393
0.68900996 0.0071986048 0.51760548
0.68946791 0.010159442 0.517102
0.6901347 0.010882556 0.51819205
0.68905312 0.013969011 0.51734048
0.69004709 0.012750705 0.51864839
0.6890049 0.016529528 0.51778662
0.68846154 0.01923685 0.5172922
0.6887337 0.022539649 0.51744825
0.6868692 0.024636097 0.51606309
0.68828171 0.02569655 0.51742512
0.6883747 0.028347695 0.51747501
0.68932927 0.031180477 0.51727229
0.69020504 0.032472298 0.51799017
0.68945992 0.034598514 0.51695681
0.69048977 0.034694314 0.51825273
0.68973655 0.037859857 0.51627773
0.6908977 0.03754244 0.51797003
0.69124788 0.04016884 0.5176115
0.69098902 0.043473125 0.517555
0.69082791 0.046772894 0.51738536
0.69118416 0.04954879 0.51750678
0.69107431 0.052300837 0.51733708
0.68947065 0.054426789 0.5164631
0.69097263 0.055780686 0.51743764
0.69080693 0.058627646 0.51756161
0.68939161 0.061818093 0.51687026
0.69087863 0.060966946 0.51813382
0.6883691 0.064286418 0.51728755
0.68637651 0.06805791 0.51692289
0.68771094 0.067496657 0.51810211
0.68642259 0.070366412 0.51661748
0.68745303 0.070462264 0.51791412
0.68650997 0.073151454 0.51704967
0.68754041 0.073247306 0.51834643
0.68653077 0.075731382 0.51702416
0.68789577 0.076928526 0.51781237
0.68915504 0.079618022 0.51661414
0.69066906 0.079470538 0.51822108
0.68920523 0.082577594 0.51707315
0.69063371 0.082019188 0.51815486
0.68915045 0.085830711 0.51706457
0.69041181 0.085289113 0.51831049
0.68917918 0.088800624 0.51726854
0.69041145 0.088346973 0.51840007
0.68875885 0.091743998 0.51743877
0.69020581 0.090557948 0.51840007
0.68857712 0.094430484 0.51758796
0.68649119 0.0986242 0.51681894
0.68776643 0.097491644 0.51769096
0.68667638 0.10085672 0.51678026
0.68806839 0.10014488 0.51816976
0.68646574 0.10361125 0.51630825
0.6878953 0.10318711 0.51804245
0.68342423 0.10728065 0.51610786
0.68549049 0.10670986 0.51738781
0.68755472 0.10566697 0.51816976
0.65838027 0.11091019 0.51718771
0.68860322 0.10879038 0.51745558
0.65883768 0.11256443 0.51644075
0.66062725 0.11161302 0.51603967
0.65889001 0.11419445 0.51619148
0.69491321 -0.10604635 0.519247
0.69603282 -0.10612286 0.51960117
0.69247013 -0.10317265 0.51991767
0.6943233 -0.10405421 0.52039236
0.69196385 -0.10027353 0.52022809
0.69382548 -0.10066573 0.52160603
0.69159931 -0.097541198 0.52080488
0.6908958 -0.094424136 0.52058214
0.6895054 -0.091312334 0.5198673
0.69025779 -0.091579527 0.52094567
0.68951273 -0.089268506 0.52088106
0.69023818 -0.087783813 0.51999491
0.68955505 -0.085909575 0.52004409
0.69045252 -0.085485652 0.52059704
0.68978536 -0.083857894 0.51954359
0.69032657 -0.082532518 0.52062857
0.68991464 -0.080714412 0.51904231
0.69054306 -0.079451106 0.52065748
0.69072354 -0.076520883 0.52053761
0.69083172 -0.073568761 0.52050114
0.69051707 -0.070890188 0.52016211
0.6898334 -0.066521369 0.52007353
0.69032514 -0.068123221 0.52050114
0.69083649 -0.064323448 0.52093619
0.69399333 -0.063429728 0.52149355
0.68988335 -0.061096877 0.52025074
0.69137406 -0.061219111 0.52135962
0.68980366 -0.058834419 0.52092838
0.69103032 -0.05858095 0.52123731
0.6898101 -0.055750601 0.51974928
0.691567 -0.055867385 0.52068841
0.69394302 -0.056894708 0.52167153
0.69128329 -0.052608926 0.52079016
0.69152981 -0.049403556 0.52056515
0.69105887 -0.046319809 0.52033514
0.69099438 -0.043770295 0.52084625
0.69066763 -0.040548813 0.52040195
0.69073516 -0.037280429 0.52052063
0.69100583 -0.034407891 0.52044392
0.69131058 -0.031685527 0.52062154
0.69132251 -0.028579969 0.52082384
0.68996489 -0.024313916 0.51945263
0.69089645 -0.025697999 0.52045399
0.6897614 -0.022126555 0.51945263
0.69061768 -0.022540038 0.52099133
0.69058144 -0.019843671 0.52073979
0.69042128 -0.016586836 0.52057242
0.68965161 -0.012154069 0.52099133
0.69023949 -0.013863695 0.52048868
0.69022751 -0.010319709 0.51994944
0.69954908 -0.0091592371 0.52165765
0.68994075 -0.0074281679 0.51930362
0.69023883 -0.007847013 0.52066696
0.7002036 -0.0073865037 0.52127075
0.68980253 -0.0050128042 0.51975811
0.69027233 -0.0041981097 0.52078551
0.69928753 -0.0047689234 0.52148879
0.68996173 -0.00024485201 0.52016348
0.69023228 -0.0014850084 0.52098101
0.68985987 0.00085049769 0.52016348
0.69039184 0.0019854326 0.52075016
0.68993914 0.0046284711 0.51965922
0.69049042 0.0044445945 0.52136719
0.68980086 0.0070426054 0.52011395
0.69039708 0.0076756873 0.52079207
0.68991655 0.0095092515 0.51915419
0.69040269 0.010955686 0.52076274
0.68955702 0.014300456 0.51960939
0.69042563 0.013304769 0.52092522
0.68985784 0.015932526 0.52060837
0.69018519 0.016813722 0.52138013
0.68949914 0.01900346 0.51994383
0.69031578 0.020058678 0.52087605
0.68984926 0.022995854 0.51985174
0.69066662 0.022602525 0.52119148
0.68951178 0.025304969 0.52013397
0.6905362 0.025742402 0.52111447
0.68980098 0.028172031 0.51934624
0.69048542 0.028279034 0.52078801
0.69154781 0.031569868 0.52069736
0.69182175 0.034731686 0.52066267
0.6922133 0.037260015 0.52070075
0.69229472 0.040071901 0.52016419
0.69316292 0.040771499 0.52089024
0.69224352 0.043660607 0.5202539
0.69222718 0.046541747 0.52046269
0.69826353 0.047133073 0.52128965
0.70099223 0.047191121 0.52150309
0.69229484 0.04919013 0.52043277
0.69479632 0.050410144 0.52158421
0.69716299 0.050443485 0.5213635
0.69223154 0.052473728 0.51994455
0.69345987 0.052572913 0.52122474
0.69651186 0.052675389 0.52187109
0.69196075 0.055478368 0.52014321
0.69332147 0.056425225 0.52097118
0.69242805 0.058567919 0.52010524
0.69393086 0.05784443 0.52136767
0.69610047 0.057097316 0.52187109
0.69188327 0.061471686 0.52042234
0.69308573 0.060325433 0.52165765
0.6892879 0.065634497 0.51964295
0.6905753 0.064311489 0.52079481
0.6891346 0.067726903 0.52022016
0.68904036 0.070398562 0.52048755
0.68876839 0.073376164 0.52024376
0.68911833 0.076391622 0.52022821
0.69019258 0.07787621 0.52061224
0.69149649 0.079596736 0.52059084
0.69720525 0.079340629 0.52157688
0.69178092 0.082373641 0.52032328
0.69165546 0.085705906 0.52058715
0.69122213 0.088343613 0.52047032
0.69089592 0.091210037 0.52039576
0.68955332 0.095569044 0.52028465
0.69063061 0.094161004 0.52058351
0.68914306 0.097947165 0.52022469
0.69008785 0.097288758 0.52115107
0.68921882 0.10065907 0.52045768
0.68939841 0.10333759 0.52046394
0.68651789 0.10756841 0.52000076
0.68866122 0.10662137 0.52060437
0.69044602 0.10565276 0.52151078
0.6910187 0.10901507 0.52049506
0.69294488 -0.097482011 0.52395433
0.69317216 -0.097490042 0.52244329
0.69206154 -0.094414368 0.52320778
0.69106632 -0.091538265 0.52352756
0.68991685 -0.088666394 0.52324378
0.69060791 -0.088474862 0.52378768
0.69123477 -0.085490994 0.52382606
0.69571382 -0.086929299 0.52452689
0.69682825 -0.085120559 0.52302915
0.69138616 -0.082234599 0.52411997
0.69470042 -0.08199697 0.5243479
0.69618511 -0.082814991 0.52352965
0.69170934 -0.079147883 0.52340198
0.69437361 -0.079254702 0.52443129
0.69169748 -0.076495163 0.52312541
0.69373339 -0.076646537 0.52462041
0.6913963 -0.073763661 0.52318072
0.69304746 -0.07477621 0.52466714
0.69094819 -0.070463441 0.52334666
0.68997151 -0.06832765 0.52260393
0.69133037 -0.067061149 0.52307785
0.69320995 -0.067381136 0.52367163
0.6921792 -0.06459628 0.5223648
0.6940611 -0.064212881 0.52365774
0.69245911 -0.062102899 0.52231687
0.6934287 -0.061462868 0.5236004
0.69272745 -0.058529962 0.52327245
0.69312954 -0.059146494 0.52452689
0.69269806 -0.055002585 0.52292299
0.69408482 -0.055311605 0.52410054
0.69206691 -0.051656853 0.52329749
0.69354129 -0.053484552 0.52260125
0.69249654 -0.049423814 0.52321476
0.69362295 -0.049277641 0.52370745
0.69793713 -0.048460141 0.52399725
0.692348 -0.046484552 0.52295864
0.69419652 -0.0466769 0.52406067
0.69758242 -0.046601795 0.52429056
0.69233626 -0.043594666 0.52293473
0.69467181 -0.043569781 0.52435619
0.69701236 -0.043648355 0.52496266
0.69224977 -0.040365323 0.52268469
0.69470763 -0.040387023 0.52376288
0.69686687 -0.040448088 0.52437258
0.69228071 -0.037351426 0.52248681
0.69446999 -0.037254557 0.52370048
0.6966728 -0.037672345 0.52471256
0.69200581 -0.034210388 0.52257729
0.69433677 -0.034587435 0.52401078
0.69619787 -0.034892261 0.52496266
0.6919471 -0.031420257 0.52317268
0.69386619 -0.032039843 0.52404517
0.69217706 -0.028358478 0.52312505
0.6931994 -0.028263386 0.5244115
0.69174641 -0.025329232 0.52280116
0.69309103 -0.025558438 0.52424508
0.69164908 -0.022853313 0.52349925
0.69175333 -0.019594679 0.52349824
0.69139999 -0.016308554 0.52355385
0.6932444 -0.015183738 0.52460361
0.69121855 -0.013588916 0.52347064
0.694309 -0.013025116 0.52479613
0.69130445 -0.010875763 0.52340889
0.69465816 -0.010892521 0.52443886
0.69630075 -0.0099222241 0.52381909
0.70058107 -0.0090632401 0.52295625
0.69147909 -0.0076680705 0.52285802
0.69399405 -0.0076458165 0.52391809
0.69683379 -0.0078350026 0.52298069
0.70113927 -0.0079415273 0.52336001
0.70299387 -0.0068272669 0.52411211
0.69142514 -0.004449747 0.52329636
0.69447935 -0.0041259858 0.52430516
0.69633406 -0.0055944584 0.5233165
0.70066386 -0.0046408963 0.52322072
0.70244181 -0.0056584929 0.52461678
0.69150889 -0.0016062425 0.52349472
0.69409287 -0.0015683732 0.52464199
0.69779277 -0.0012973989 0.52283657
0.70045578 -0.0013440063 0.52310854
0.70249164 -0.00052608113 0.52456933
0.6916495 0.001045499 0.5238741
0.69399071 0.0015371258 0.52470219
0.69679761 0.0015526003 0.52367622
0.70054722 0.0013684167 0.52271545
0.70256776 0.0014895123 0.52454555
0.69159645 0.0041883672 0.52387267
0.69419491 0.0033658321 0.524822
0.69720984 0.0032052386 0.52385592
0.6996941 0.0031902462 0.52432621
0.69126856 0.0077150241 0.52387261
0.68997538 0.0097921975 0.52238518
0.69110125 0.010801909 0.52373332
0.69154483 0.013298693 0.52370965
0.69395709 0.014311088 0.52475142
0.69140941 0.016413899 0.52332401
0.69424087 0.016684305 0.5243361
0.6916151 0.019530291 0.52295768
0.69440043 0.019700363 0.5236637
0.69215137 0.022379676 0.52265221
0.69451201 0.022412101 0.52324462
0.69642532 0.022423185 0.52353293
0.6919328 0.025120851 0.52261031
0.69418275 0.025167678 0.52332854
0.69184542 0.028395049 0.52235866
0.69415146 0.028488271 0.52363139
0.69285929 0.03176152 0.5233165
0.69354463 0.031825271 0.52417892
0.69267559 0.035105769 0.52399868
0.6932174 0.033974074 0.52349603
0.6926412 0.037234701 0.52298093
0.69353503 0.037311792 0.52401763
0.69281834 0.041594688 0.52230901
0.69385815 0.040746137 0.52390128
0.69266355 0.043844637 0.52307642
0.69268578 0.046413682 0.52305269
0.69443101 0.045910068 0.52397871
0.69692773 0.046155129 0.52375036
0.70237678 0.047319908 0.52324533
0.69395483 0.048804451 0.52272224
0.69754422 0.049405452 0.52242535
0.70041955 0.049305219 0.52359277
0.69421709 0.052643485 0.52217704
0.69793445 0.052932478 0.5230695
0.69942409 0.052327674 0.52440298
0.69271654 0.054845773 0.52266848
0.69513345 0.055437043 0.5223242
0.69649935 0.055520266 0.52324498
0.69508791 0.058876324 0.52250826
0.69651628 0.057721652 0.5229919
0.69256306 0.0625806 0.52284819
0.69432557 0.061242752 0.52346128
0.69181287 0.064809129 0.5237484
0.68992388 0.068011448 0.52281308
0.69044936 0.06732095 0.5233885
0.6898362 0.069867164 0.5232684
0.69028842 0.070617989 0.52322048
0.68953675 0.073542632 0.52349603
0.689551 0.075740151 0.52324396
0.69057024 0.077259243 0.5232926
0.69474143 0.07712502 0.52461678
0.69200748 0.078879967 0.5229913
0.69372892 0.079464518 0.52320129
0.69744259 0.079557963 0.52336299
0.69250673 0.082483798 0.52245069
0.69464648 0.082756646 0.52329916
0.6966964 0.082004689 0.52408969
0.69271249 0.086382225 0.52263093
0.69394988 0.085450627 0.52368879
0.69237101 0.088864572 0.52275741
0.69376373 0.088150859 0.52414763
0.69206065 0.091352649 0.52305537
0.69393641 0.091221832 0.52445501
0.69174016 0.094801225 0.52305526
0.69369161 0.094079278 0.52456927
0.69096744 0.097630933 0.52319318
0.68997777 0.10119788 0.5225234
0.69105756 0.10018887 0.52388483
0.68987519 0.10230081 0.5225234
0.69110245 0.10362417 0.52346861
0.69343877 0.10406014 0.52435338
0.68963295 0.1072752 0.52227044
0.69109911 0.10668696 0.52350277
0.69364476 0.10593097 0.52447438
0.69213277 0.10858716 0.52342439
0.69377917 0.10927185 0.52396882
0.69185185 -0.094247602 0.52653879
0.69168597 -0.091339283 0.52688748
0.69144917 -0.088432275 0.52658308
0.69450396 -0.087642133 0.52601707
0.69217807 -0.086432524 0.52530277
0.69347858 -0.085489653 0.52532911
0.69332027 -0.082269989 0.52516377
0.69519609 -0.078575671 0.52587855
0.69445908 -0.07616058 0.52592504
0.69246078 -0.073030129 0.52516377
0.69365531 -0.073749013 0.52615958
0.692258 -0.070155352 0.52626836
0.69241625 -0.06747634 0.52626395
0.69368362 -0.067816913 0.52592385
0.693735 -0.064710766 0.5256651
0.69335765 -0.061104454 0.52612698
0.69245195 -0.05822888 0.52687037
0.69282669 -0.054904677 0.52772367
0.6930185 -0.055169072 0.52587897
0.69271469 -0.05190298 0.52587897
0.69352567 -0.05265253 0.52611768
0.69261342 -0.05081429 0.52587897
0.6941821 -0.050009307 0.52628082
0.70001298 -0.048059471 0.52611268
0.69834071 -0.045868121 0.52532226
0.70013148 -0.046568792 0.52687967
0.69816822 -0.043383118 0.52643549
0.69911152 -0.044005081 0.52754009
0.69814438 -0.040463522 0.52615023
0.69948852 -0.03968481 0.52747178
0.69803894 -0.037545279 0.5264315
0.69957542 -0.036914665 0.52790165
0.69756341 -0.03476524 0.52668101
0.69479668 -0.03109468 0.52617395
0.69657773 -0.032523915 0.52674985
0.69456249 -0.028136594 0.52612674
0.69445443 -0.025431614 0.52596074
0.69230258 -0.022313803 0.52536225
0.69391495 -0.02276125 0.5265035
0.69277656 -0.019410441 0.52560145
0.69381624 -0.019385248 0.52625453
0.69258726 -0.016453533 0.52605289
0.69400042 -0.016103571 0.52647418
0.69270533 -0.014020167 0.52510291
0.69438648 -0.01402989 0.5256415
0.69250202 -0.011834483 0.52510291
0.70329553 -0.0081421295 0.52618533
0.70540559 -0.0066029308 0.52714688
0.70183945 -0.0039400556 0.52512068
0.70346659 -0.0043917522 0.52662891
0.70168555 -0.0022856584 0.52512068
0.70345116 -0.0012371638 0.52652061
0.6940614 0.00013649203 0.52532226
0.70414227 0.0017473953 0.52653992
0.70508224 0.00060921803 0.52758044
0.69199377 0.0056595849 0.52546209
0.6944918 0.0051815989 0.52561039
0.69726801 0.0056708418 0.52683532
0.70106906 0.0033181426 0.52605641
0.70385963 0.0043202415 0.52739197
0.69221139 0.0082540596 0.52603424
0.69412327 0.0070487293 0.52682537
0.69215345 0.010424269 0.52586818
0.69431597 0.010104037 0.52679604
0.69288969 0.012732992 0.52532226
0.69495928 0.013323595 0.52618587
0.69635165 0.014533896 0.52776539
0.692635 0.015471365 0.52532226
0.69505024 0.016028766 0.52579284
0.69396502 0.040504798 0.52649415
0.69266647 0.044000525 0.52554262
0.69363111 0.043284517 0.52561605
0.69481534 0.045176145 0.5262655
0.70130384 0.050828658 0.52657408
0.70270348 0.049157359 0.52599949
0.7011494 0.052488163 0.52657408
0.70158231 0.055318199 0.52744246
0.69594032 0.059478488 0.52512068
0.70120454 0.058044601 0.52675629
0.70206988 0.059715938 0.52643436
0.69465256 0.061967701 0.5259099
0.69710958 0.062871963 0.52591634
0.70146543 0.061390534 0.5269388
0.69297433 0.064968005 0.5262655
0.69351691 0.063857913 0.52576405
0.69120681 0.067119114 0.52640402
0.68977875 0.070354812 0.52604312
0.69027674 0.070391878 0.5264594
0.68985808 0.074191779 0.52554262
0.69080442 0.073568404 0.52665043
0.6941849 0.074954584 0.52630758
0.69145012 0.076352194 0.52547485
0.69497365 0.076432377 0.5255301
0.6975947 0.078422204 0.52620989
0.6959464 0.083880633 0.52584624
0.69739079 0.082647704 0.5266574
0.69522613 0.085502282 0.52566469
0.69608831 0.085043617 0.52721602
0.6947732 0.087982938 0.5259164
0.69404387 0.0920901 0.52548319
0.69255477 0.095875211 0.52512068
0.6937359 0.095401436 0.52548319
0.69240087 0.097529605 0.52512068
0.69308889 0.097593606 0.52598643
0.69238102 0.10031869 0.5258413
0.69350815 0.10345168 0.52613276
0.69206989 0.10696097 0.52615374
0.69344902 0.10595139 0.5263496
0.69245827 0.10810344 0.52641857
0.69243264 -0.088101052 0.52848566
0.69246292 -0.072020158 0.52835184
0.69236201 -0.070935577 0.52835184
0.69101351 -0.05819457 0.53018582
0.69129443 -0.056671578 0.52969486
0.70154345 -0.046467241 0.52872759
0.70295364 -0.046976816 0.53005564
0.70076752 -0.043299057 0.529688
0.70069617 -0.040383991 0.52934289
0.70075941 -0.037729066 0.52974647
0.69887799 -0.03409097 0.52839923
0.70016807 -0.034633361 0.52994573
0.69588673 -0.030686468 0.52817297
0.69759715 -0.031668402 0.52894974
0.69964778 -0.032238346 0.53061301
0.69517034 -0.021714853 0.52935404
0.69604802 -0.022293573 0.53038192
0.69511878 -0.01914354 0.52899754
0.6964435 -0.019436507 0.53017318
0.69485986 -0.016901001 0.5295254
0.69676214 -0.017938247 0.53074455
0.7048167 -0.0037151417 0.52833307
0.70563537 -0.0045264382 0.5287323
0.70461142 -0.0015084257 0.52833307
0.70552516 -0.0014750246 0.5289489
0.70571995 0.0012256276 0.52844751
0.69863766 0.0057982486 0.52855885
0.70546305 0.0039872043 0.52844751
0.69486034 0.0081325099 0.52932531
0.69731879 0.0070446837 0.52992725
0.70282459 0.0068162135 0.5286516
0.69542444 0.0095322877 0.52880639
0.69673294 0.0098226061 0.53029913
0.69601244 0.013485918 0.52826381
0.69536978 0.040929895 0.52855885
0.69673949 0.0410573 0.53028238
0.69211441 0.043695144 0.52950573
0.69150352 0.067520753 0.52890915
0.69112509 0.070518598 0.52861106
0.69706357 0.085308366 0.528916
0.69767797 0.088132679 0.52867568
0.6990822 0.089678779 0.52831089
0.70346528 -0.04539144 0.53177083
0.70276785 -0.04333378 0.53217953
0.70114386 -0.0409243 0.53147155
0.70257109 -0.040676177 0.53245008
0.70196533 -0.037667722 0.53183579
0.70255303 -0.037664846 0.53215337
0.70165992 -0.034384191 0.53183579
0.70234269 -0.034320682 0.532695
0.70065439 -0.031775743 0.5326997
0.6999231 -0.029760281 0.53331608
0.69756043 -0.02168121 0.53233969
0.70004117 -0.021421393 0.53339529
0.70251036 -0.02154237 0.53334713
0.69769943 -0.019262476 0.53227699
0.700014 -0.020012103 0.53300554
0.69749635 -0.017079286 0.53227693
0.69924736 -0.017820843 0.53282344
0.69712764 0.0082964674 0.53165364
0.6977883 0.040518381 0.53194588
0.70070589 -0.030788928 0.53417331
0.70016193 -0.029615259 0.53466457
